ply
format ascii 1.0
comment PCL generated
element vertex 2043
property float x
property float y
property float z
element camera 0
property float view_px
property float view_py
property float view_pz
property float x_axisx
property float x_axisy
property float x_axisz
property float y_axisx
property float y_axisy
property float y_axisz
property float z_axisx
property float z_axisy
property float z_axisz
property float focal
property float scalex
property float scaley
property float centerx
property float centery
property int viewportx
property int viewporty
property float k1
property float k2
end_header
84.127197 -144.466 1002
85.219101 -144.463 1002
86.311096 -144.461 1002
87.402901 -144.45799 1002
88.494598 -144.455 1002
89.675598 -144.59599 1003
90.768303 -144.593 1003
27.5247 -144.759 1011
28.6003 -144.61501 1010
29.644501 -144.328 1008
30.7146 -144.18401 1007
31.814199 -144.183 1007
32.881001 -144.039 1006
33.945702 -143.894 1005
35.008202 -143.75 1004
36.068401 -143.606 1003
37.163399 -143.605 1003
38.2584 -143.603 1003
39.3535 -143.60201 1003
40.448502 -143.601 1003
41.501999 -143.45599 1002
42.595798 -143.455 1002
43.646 -143.31 1001
44.738701 -143.30901 1001
45.831299 -143.30701 1001
46.923901 -143.306 1001
48.016499 -143.304 1001
49.1091 -143.30299 1001
50.2015 -143.30099 1001
51.293999 -143.3 1001
52.386398 -143.298 1001
53.5322 -143.439 1002
54.625599 -143.438 1002
55.719101 -143.436 1002
56.812401 -143.43401 1002
57.905701 -143.43201 1002
58.998901 -143.42999 1002
60.092201 -143.42799 1002
61.185299 -143.42599 1002
62.2784 -143.424 1002
63.3083 -143.27901 1001
64.335899 -143.134 1000
65.426697 -143.132 1000
66.517403 -143.13 1000
67.608101 -143.12801 1000
68.698799 -143.125 1000
69.8591 -143.26601 1001
71.021698 -143.407 1002
72.114304 -143.405 1002
73.206902 -143.40199 1002
74.299599 -143.39999 1002
75.4673 -143.541 1003
76.560799 -143.53799 1003
77.654297 -143.536 1003
78.747597 -143.533 1003
79.841103 -143.53101 1003
80.934402 -143.528 1003
82.027603 -143.526 1003
83.120697 -143.52299 1003
84.213997 -143.52 1003
85.306999 -143.517 1003
86.399902 -143.515 1003
87.492897 -143.51199 1003
88.5858 -143.509 1003
89.678497 -143.506 1003
90.771202 -143.50301 1003
91.955498 -143.64301 1004
93.049202 -143.64101 1004
27.4711 -143.375 1009
28.5446 -143.23199 1008
29.5865 -142.94701 1006
30.685101 -142.946 1006
31.7836 -142.94501 1006
32.8494 -142.802 1005
33.912998 -142.659 1004
34.9743 -142.51601 1003
36.0695 -142.515 1003
37.127602 -142.37199 1002
38.2215 -142.37 1002
39.315498 -142.369 1002
40.409401 -142.368 1002
41.5033 -142.367 1002
42.554699 -142.22301 1001
43.6474 -142.222 1001
44.740101 -142.22 1001
45.878601 -142.36099 1002
46.972301 -142.35899 1002
48.018002 -142.216 1001
49.1106 -142.214 1001
50.203201 -142.213 1001
51.2957 -142.211 1001
52.3881 -142.209 1001
53.480499 -142.20799 1001
54.627399 -142.34801 1002
55.665199 -142.20399 1001
56.7575 -142.202 1001
57.8498 -142.201 1001
58.942001 -142.19901 1001
60.094101 -142.339 1002
61.126202 -142.19501 1001
62.2183 -142.19299 1001
63.310398 -142.19099 1001
64.337997 -142.047 1000
65.428802 -142.045 1000
66.519501 -142.04201 1000
67.677902 -142.18201 1001
68.769699 -142.17999 1001
69.861397 -142.17799 1001
70.953102 -142.17599 1001
72.116699 -142.315 1002
73.209297 -142.313 1002
74.301903 -142.311 1002
75.469597 -142.45 1003
76.563301 -142.448 1003
77.656799 -142.44501 1003
78.750198 -142.44299 1003
79.843597 -142.44 1003
80.936996 -142.438 1003
82.112 -142.577 1004
83.206299 -142.575 1004
84.300499 -142.57201 1004
85.394798 -142.569 1004
86.402702 -142.424 1003
87.495598 -142.422 1003
88.5886 -142.41901 1003
89.681396 -142.416 1003
90.7742 -142.41299 1003
91.958397 -142.552 1004
93.0522 -142.549 1004
94.145798 -142.54601 1004
27.4447 -142.13699 1008
28.488899 -141.854 1006
29.5581 -141.71201 1005
30.6555 -141.711 1005
31.721399 -141.569 1004
32.817799 -141.56799 1004
33.880299 -141.42599 1003
34.940601 -141.284 1002
36.034698 -141.283 1002
37.128799 -141.282 1002
38.222801 -141.28 1002
39.3167 -141.27901 1002
40.370399 -141.13699 1001
41.463299 -141.136 1001
42.556099 -141.134 1001
43.6488 -141.133 1001
44.7416 -141.132 1001
45.880001 -141.271 1002
46.9739 -141.27 1002
48.0196 -141.127 1001
49.112202 -141.12601 1001
50.2048 -141.12399 1001
51.297298 -141.12199 1001
52.389801 -141.121 1001
53.482201 -141.119 1001
54.574699 -141.117 1001
55.667 -141.116 1001
56.702599 -140.97301 1000
57.7938 -140.97099 1000
58.884998 -140.96899 1000
60.035999 -141.108 1001
61.128201 -141.106 1001
62.158199 -140.963 1000
63.2491 -140.961 1000
64.340103 -140.959 1000
65.430901 -140.957 1000
66.521698 -140.955 1000
67.680099 -141.09399 1001
68.771896 -141.092 1001
69.863602 -141.089 1001
70.955299 -141.08701 1001
72.119003 -141.226 1002
73.2117 -141.224 1002
74.304298 -141.22099 1002
75.472099 -141.36 1003
76.565598 -141.35699 1003
77.659302 -141.355 1003
78.752701 -141.35201 1003
79.925697 -141.491 1004
81.020302 -141.48801 1004
82.1147 -141.48599 1004
83.209 -141.483 1004
84.387199 -141.621 1005
85.397499 -141.478 1004
86.491699 -141.47501 1004
87.585701 -141.472 1004
88.679703 -141.46899 1004
89.773697 -141.467 1004
90.867599 -141.464 1004
91.961304 -141.461 1004
93.147903 -141.599 1005
94.242599 -141.59599 1005
95.337303 -141.593 1005
96.527901 -141.731 1006
27.3911 -140.75999 1006
28.4615 -140.62 1005
29.5296 -140.479 1004
30.625999 -140.478 1004
31.6908 -140.33701 1003
32.786098 -140.336 1003
33.881401 -140.33501 1003
34.9417 -140.194 1002
35.999901 -140.05299 1001
37.092899 -140.052 1001
38.185902 -140.05099 1001
39.278801 -140.049 1001
40.3717 -140.048 1001
41.4645 -140.047 1001
42.5574 -140.04601 1001
43.6502 -140.04401 1001
44.743 -140.043 1001
45.835701 -140.041 1001
46.975399 -140.17999 1002
48.021198 -140.03799 1001
49.1138 -140.037 1001
50.1562 -139.895 1000
51.2477 -139.894 1000
52.3391 -139.892 1000
53.483898 -140.03 1001
54.576401 -140.02901 1001
55.6688 -140.02699 1001
56.761101 -140.02499 1001
57.853401 -140.02299 1001
58.945702 -140.021 1001
60.037998 -140.019 1001
61.1301 -140.01801 1001
62.160198 -139.87601 1000
63.251099 -139.87399 1000
64.342003 -139.87199 1000
65.432899 -139.87 1000
66.523804 -139.868 1000
67.682198 -140.005 1001
68.774101 -140.00301 1001
69.865898 -140.00101 1001
70.957603 -139.99899 1001
72.121201 -140.136 1002
73.213997 -140.134 1002
74.380798 -140.271 1003
75.474503 -140.269 1003
76.644402 -140.407 1004
77.739098 -140.40401 1004
78.833801 -140.40199 1004
79.928299 -140.399 1004
81.022797 -140.397 1004
82.117302 -140.394 1004
83.2117 -140.39101 1004
84.3899 -140.52901 1005
85.485199 -140.526 1005
86.4944 -140.383 1004
87.588501 -140.381 1004
88.682503 -140.37801 1004
89.776497 -140.375 1004
90.870499 -140.37199 1004
92.055901 -140.509 1005
93.150703 -140.506 1005
94.245598 -140.50301 1005
95.340302 -140.5 1005
96.626801 -140.77699 1007
97.723701 -140.774 1007
98.918503 -140.911 1008
25.269699 -140.084 1009
26.345501 -139.944 1008
27.392 -139.666 1006
28.4624 -139.526 1005
29.5305 -139.38699 1004
30.5965 -139.24699 1003
31.691799 -139.246 1003
32.754501 -139.106 1002
33.814899 -138.966 1001
34.907902 -138.965 1001
35.965 -138.825 1000
37.056999 -138.82401 1000
38.148899 -138.823 1000
39.240799 -138.82201 1000
40.373001 -138.959 1001
41.4659 -138.95799 1001
42.558701 -138.957 1001
43.6516 -138.955 1001
44.7444 -138.95399 1001
45.8372 -138.952 1001
46.929901 -138.951 1001
48.022598 -138.94901 1001
49.115299 -138.948 1001
50.157799 -138.808 1000
51.249298 -138.806 1000
52.340801 -138.804 1000
53.432201 -138.80299 1000
54.578098 -138.94 1001
55.670502 -138.938 1001
56.763 -138.936 1001
57.855301 -138.93401 1001
58.947601 -138.933 1001
60.039902 -138.931 1001
61.132099 -138.929 1001
62.162102 -138.78799 1000
63.253101 -138.786 1000
64.344101 -138.784 1000
65.434998 -138.782 1000
66.525902 -138.78 1000
67.616798 -138.778 1000
68.776199 -138.914 1001
69.868103 -138.912 1001
70.959801 -138.91 1001
72.123497 -139.047 1002
73.2164 -139.04401 1002
74.383202 -139.181 1003
75.476898 -139.17799 1003
76.646896 -139.315 1004
77.741501 -139.312 1004
78.836197 -139.31 1004
79.930801 -139.30701 1004
81.025299 -139.30499 1004
82.119797 -139.302 1004
83.214302 -139.3 1004
84.392601 -139.436 1005
85.4879 -139.433 1005
86.583199 -139.42999 1005
87.591301 -139.289 1004
88.685303 -139.286 1004
89.868698 -139.422 1005
90.963799 -139.41901 1005
92.0588 -139.416 1005
93.2463 -139.552 1006
94.342201 -139.549 1006
95.438202 -139.54601 1006
96.629898 -139.68201 1007
97.8237 -139.81799 1008
99.019699 -139.95399 1009
100.218 -140.089 1010
24.192301 -139.125 1010
25.245399 -138.84801 1008
26.2941 -138.57201 1006
27.365601 -138.43401 1005
28.406601 -138.157 1003
29.502001 -138.15601 1003
30.5669 -138.01801 1002
31.629601 -137.879 1001
32.722801 -137.87801 1001
33.7822 -137.739 1000
34.874199 -137.73801 1000
35.966202 -137.737 1000
37.021099 -137.59801 999
38.1119 -137.597 999
39.202801 -137.59599 999
40.3339 -137.73199 1000
41.425701 -137.731 1000
42.517601 -137.73 1000
43.609299 -137.728 1000
44.701099 -137.72701 1000
45.8386 -137.86301 1001
46.9314 -137.862 1001
47.9762 -137.72301 1000
49.067799 -137.72099 1000
50.159401 -137.72 1000
51.2509 -137.718 1000
52.3424 -137.716 1000
53.433899 -137.715 1000
54.525299 -137.713 1000
55.616699 -137.711 1000
56.708 -137.71001 1000
57.799301 -137.70799 1000
58.890598 -137.70599 1000
60.041698 -137.842 1001
61.133999 -137.84 1001
62.164001 -137.7 1000
63.2551 -137.698 1000
64.346199 -137.696 1000
65.437103 -137.694 1000
66.528 -137.692 1000
67.618896 -137.69 1000
68.709702 -137.688 1000
69.870201 -137.823 1001
70.962097 -137.821 1001
72.125801 -137.957 1002
73.291603 -138.092 1003
74.385399 -138.09 1003
75.479301 -138.08701 1003
76.6493 -138.22301 1004
77.744003 -138.22 1004
78.917198 -138.356 1005
80.013 -138.353 1005
81.108597 -138.351 1005
82.204201 -138.34801 1005
83.299698 -138.345 1005
84.395203 -138.343 1005
85.490601 -138.34 1005
86.585899 -138.338 1005
87.681099 -138.33501 1005
88.776398 -138.332 1005
89.871498 -138.32899 1005
91.057098 -138.464 1006
92.153297 -138.461 1006
93.249298 -138.45799 1006
94.439003 -138.593 1007
95.536003 -138.59 1007
96.728897 -138.72501 1008
97.923798 -138.86 1009
99.121002 -138.994 1010
100.32 -139.129 1011
101.521 -139.263 1012
102.725 -139.39799 1013
23.066999 -137.89 1009
24.145201 -137.752 1008
25.2211 -137.61501 1007
26.2687 -137.341 1005
27.311899 -137.067 1003
28.3792 -136.929 1002
29.444099 -136.79201 1001
30.5373 -136.791 1001
31.599001 -136.653 1000
32.691101 -136.65199 1000
33.749401 -136.51401 999
34.840401 -136.513 999
35.931301 -136.51199 999
37.022202 -136.511 999
38.113098 -136.50999 999
39.203899 -136.509 999
40.2948 -136.508 999
41.385601 -136.506 999
42.518902 -136.642 1000
43.610699 -136.64 1000
44.702499 -136.63901 1000
45.7943 -136.638 1000
46.886002 -136.636 1000
47.977699 -136.63499 1000
49.020199 -136.496 999
50.110802 -136.495 999
51.201302 -136.493 999
52.291698 -136.492 999
53.382099 -136.49001 999
54.4725 -136.48801 999
55.618401 -136.623 1000
56.709801 -136.62199 1000
57.801201 -136.62 1000
58.892399 -136.618 1000
59.983601 -136.616 1000
61.135899 -136.75101 1001
62.166 -136.612 1000
63.257099 -136.61 1000
64.348099 -136.608 1000
65.439201 -136.606 1000
66.530098 -136.604 1000
67.621002 -136.60201 1000
68.711899 -136.60001 1000
69.802597 -136.59801 1000
70.964302 -136.73199 1001
72.128098 -136.867 1002
73.2939 -137.00101 1003
74.387703 -136.99899 1003
75.481598 -136.99699 1003
76.651703 -137.131 1004
77.746399 -137.12801 1004
78.919701 -137.263 1005
80.015503 -137.25999 1005
81.111 -137.258 1005
82.206703 -137.255 1005
83.302299 -137.252 1005
84.481697 -137.386 1006
85.5784 -137.384 1006
86.5886 -137.245 1005
87.771103 -137.379 1006
88.8675 -137.37601 1006
89.963799 -137.373 1006
91.150497 -137.507 1007
92.247597 -137.504 1007
93.344902 -137.50101 1007
94.441902 -137.498 1007
95.633797 -137.632 1008
96.827797 -137.765 1009
98.023903 -137.899 1010
99.123901 -137.896 1010
100.323 -138.02901 1011
101.524 -138.16299 1012
102.829 -138.433 1014
104.139 -138.703 1016
105.348 -138.836 1017
19.8787 -137.60699 1015
20.9254 -137.2 1012
21.9874 -136.92799 1010
23.044901 -136.65601 1008
24.098 -136.384 1006
25.171801 -136.248 1005
26.243401 -136.112 1004
27.285601 -135.84 1002
28.3517 -135.703 1001
29.4156 -135.567 1000
30.477301 -135.42999 999
31.5683 -135.429 999
32.626701 -135.293 998
33.716599 -135.29201 998
34.806599 -135.291 998
35.8965 -135.28999 998
36.986301 -135.28799 998
38.076099 -135.287 998
39.165901 -135.286 998
40.255699 -135.285 998
41.345501 -135.284 998
42.477699 -135.418 999
43.568401 -135.41701 999
44.659199 -135.41499 999
45.749901 -135.414 999
46.840599 -135.412 999
47.931198 -135.411 999
49.021801 -135.409 999
50.112301 -135.408 999
51.202801 -135.40601 999
52.293301 -135.405 999
53.383801 -135.403 999
54.474201 -135.401 999
55.564499 -135.39999 999
56.711601 -135.534 1000
57.802898 -135.532 1000
58.894299 -135.53 1000
59.9855 -135.528 1000
61.137798 -135.662 1001
62.23 -135.66 1001
63.259102 -135.522 1000
64.350098 -135.521 1000
65.441101 -135.519 1000
66.532097 -135.51601 1000
67.6231 -135.51401 1000
68.713898 -135.51199 1000
69.804802 -135.50999 1000
70.9664 -135.64301 1001
72.058296 -135.64101 1001
73.223099 -135.77499 1002
74.390099 -135.908 1003
75.483902 -135.905 1003
76.654099 -136.039 1004
77.748901 -136.036 1004
78.922096 -136.16901 1005
80.017899 -136.16701 1005
81.113503 -136.164 1005
82.209297 -136.162 1005
83.387703 -136.295 1006
84.484299 -136.29201 1006
85.665901 -136.425 1007
86.677498 -136.287 1006
87.773804 -136.284 1006
88.958504 -136.41701 1007
90.055901 -136.414 1007
91.243797 -136.547 1008
92.342102 -136.54401 1008
93.4403 -136.541 1008
94.538597 -136.539 1008
95.636703 -136.536 1008
96.830704 -136.668 1009
98.026901 -136.80099 1010
99.225098 -136.933 1011
100.326 -136.92999 1011
101.628 -137.198 1013
102.832 -137.33 1014
104.142 -137.59801 1016
105.455 -137.866 1018
106.668 -137.998 1019
19.8009 -135.964 1011
20.864 -135.69501 1009
21.922701 -135.425 1007
22.9998 -135.28999 1006
24.0508 -135.02 1004
25.122499 -134.88499 1003
26.1919 -134.75 1002
27.259199 -134.61501 1001
28.3242 -134.479 1000
29.3871 -134.34399 999
30.447701 -134.20799 998
31.537701 -134.20799 998
32.595001 -134.07201 997
33.683899 -134.071 997
34.772701 -134.07001 997
35.8615 -134.069 997
36.950401 -134.06799 997
38.077301 -134.201 998
39.167099 -134.2 998
40.256901 -134.19901 998
41.346699 -134.198 998
42.436501 -134.196 998
43.569801 -134.32899 999
44.6605 -134.328 999
45.751301 -134.327 999
46.795101 -134.19099 998
47.884701 -134.189 998
48.974201 -134.188 998
50.063702 -134.186 998
51.153198 -134.185 998
52.242599 -134.183 998
53.332001 -134.18201 998
54.421299 -134.17999 998
55.510601 -134.17799 998
56.656601 -134.311 999
57.746899 -134.30901 999
58.896099 -134.442 1000
59.9874 -134.44 1000
61.078602 -134.438 1000
62.1698 -134.436 1000
63.261002 -134.43401 1000
64.352097 -134.43201 1000
65.443199 -134.42999 1000
66.534203 -134.42799 1000
67.625198 -134.42599 1000
68.716103 -134.424 1000
69.876701 -134.55701 1001
70.968597 -134.554 1001
72.132599 -134.687 1002
73.225403 -134.68401 1002
74.318199 -134.68201 1002
75.486198 -134.814 1003
76.580002 -134.812 1003
77.751297 -134.944 1004
78.9245 -135.076 1005
80.020302 -135.07401 1005
81.115997 -135.071 1005
82.2117 -135.069 1005
83.390297 -135.201 1006
84.4869 -135.198 1006
85.668602 -135.33 1007
86.68 -135.19299 1006
87.8638 -135.325 1007
88.961304 -135.32201 1007
90.148102 -135.45399 1008
91.246597 -135.451 1008
92.345001 -135.448 1008
93.443199 -135.44501 1008
94.635201 -135.577 1009
95.734497 -135.57401 1009
96.929604 -135.705 1010
98.126801 -135.83701 1011
99.326302 -135.968 1012
100.428 -135.965 1012
101.631 -136.09599 1013
102.937 -136.362 1015
104.247 -136.62801 1017
105.458 -136.759 1018
106.776 -137.024 1020
108.098 -137.28999 1022
109.424 -137.55499 1024
19.7623 -134.597 1009
20.843901 -134.463 1008
21.901501 -134.196 1006
22.9548 -133.92799 1004
24.0516 -133.927 1004
25.123199 -133.793 1003
26.166599 -133.526 1001
27.2327 -133.392 1000
28.325001 -133.39101 1000
29.387899 -133.257 999
30.448601 -133.12199 998
31.507099 -132.98801 997
32.596001 -132.987 997
33.684898 -132.98599 997
34.7738 -132.985 997
35.862701 -132.98399 997
36.9515 -132.983 997
38.040298 -132.98199 997
39.168301 -133.114 998
40.258202 -133.11301 998
41.348 -133.11099 998
42.437801 -133.11 998
43.5275 -133.10899 998
44.6619 -133.241 999
45.752701 -133.239 999
46.796501 -133.105 998
47.8862 -133.103 998
48.926701 -132.968 997
50.015099 -132.967 997
51.1035 -132.965 997
52.191799 -132.964 997
53.280201 -132.96201 997
54.3685 -132.961 997
55.456699 -132.959 997
56.601601 -133.091 998
57.690899 -133.089 998
58.838902 -133.22 999
59.929199 -133.21899 999
61.019402 -133.217 999
62.1096 -133.215 999
63.1996 -133.213 999
64.289703 -133.211 999
65.445198 -133.342 1000
66.536201 -133.34 1000
67.627296 -133.338 1000
68.718201 -133.336 1000
69.878899 -133.467 1001
71.041702 -133.599 1002
72.134598 -133.59599 1002
73.2276 -133.59399 1002
74.320503 -133.592 1002
75.488503 -133.72301 1003
76.582298 -133.72099 1003
77.7537 -133.85201 1004
78.927002 -133.983 1005
80.022797 -133.98 1005
81.199303 -134.11099 1006
82.295998 -134.10899 1006
83.392899 -134.106 1006
84.489502 -134.104 1006
85.586098 -134.101 1006
86.682701 -134.09801 1006
87.866402 -134.229 1007
88.963997 -134.226 1007
90.150803 -134.35699 1008
91.339798 -134.48801 1009
92.4394 -134.485 1009
93.538803 -134.48199 1009
94.731903 -134.612 1010
95.832199 -134.61 1010
97.028603 -134.74001 1011
98.226898 -134.87 1012
99.427399 -135.00101 1013
100.531 -134.998 1013
101.734 -135.12801 1014
102.94 -135.258 1015
104.25 -135.522 1017
105.565 -135.785 1019
106.884 -136.048 1021
108.207 -136.311 1023
109.534 -136.575 1025
18.660601 -133.49899 1009
19.7237 -133.23399 1007
20.8032 -133.101 1006
21.8804 -132.968 1005
22.9326 -132.703 1003
24.0044 -132.57001 1002
25.0989 -132.569 1002
26.1674 -132.436 1001
27.233601 -132.30299 1000
28.2976 -132.17 999
29.3594 -132.037 998
30.419001 -131.90401 997
31.4764 -131.77 996
32.564301 -131.769 996
33.6521 -131.76801 996
34.740002 -131.767 996
35.863701 -131.899 997
36.952599 -131.897 997
38.0415 -131.896 997
39.130299 -131.895 997
40.219101 -131.894 997
41.3078 -131.89301 997
42.438999 -132.024 998
43.5289 -132.022 998
44.618599 -132.021 998
45.708302 -132.02 998
46.797901 -132.01801 998
47.8396 -131.88499 997
48.9282 -131.883 997
49.9664 -131.74899 996
51.053799 -131.748 996
52.141102 -131.746 996
53.228401 -131.745 996
54.370098 -131.875 997
55.458401 -131.87399 997
56.5466 -131.87199 997
57.6926 -132.00301 998
58.781799 -132.00101 998
59.931 -132.131 999
61.021198 -132.129 999
62.1115 -132.12801 999
63.201599 -132.12601 999
64.291603 -132.12399 999
65.447197 -132.254 1000
66.5383 -132.252 1000
67.629303 -132.25 1000
68.7202 -132.248 1000
69.880997 -132.37801 1001
70.973 -132.37601 1001
72.136803 -132.506 1002
73.302803 -132.636 1003
74.396896 -132.634 1003
75.490799 -132.632 1003
76.584702 -132.629 1003
77.755898 -132.759 1004
78.929398 -132.88901 1005
80.0252 -132.88699 1005
81.121002 -132.884 1005
82.2985 -133.01401 1006
83.395302 -133.01199 1006
84.491997 -133.009 1006
85.588699 -133.007 1006
86.685303 -133.004 1006
87.869003 -133.134 1007
88.966599 -133.131 1007
90.153603 -133.261 1008
91.342598 -133.39 1009
92.533699 -133.519 1010
93.6343 -133.517 1010
94.734703 -133.51401 1010
95.93 -133.64301 1011
97.127502 -133.772 1012
98.326897 -133.90199 1013
99.528503 -134.03101 1014
100.633 -134.028 1014
101.838 -134.157 1015
103.045 -134.286 1016
104.356 -134.548 1018
105.672 -134.80901 1020
106.992 -135.07001 1022
108.316 -135.33099 1024
17.5588 -132.401 1009
18.624201 -132.138 1007
19.685101 -131.875 1005
20.7624 -131.743 1004
21.8375 -131.612 1003
22.9104 -131.48 1002
23.9811 -131.34801 1001
25.049601 -131.216 1000
26.1159 -131.084 999
27.2071 -131.08299 999
28.298401 -131.082 999
29.3603 -130.95 998
30.3894 -130.687 996
31.4774 -130.686 996
32.5326 -130.554 995
33.6194 -130.55299 995
34.7061 -130.552 995
35.8288 -130.68201 996
36.916599 -130.681 996
38.004501 -130.67999 996
39.092201 -130.679 996
40.179901 -130.677 996
41.308998 -130.80701 997
42.3978 -130.806 997
43.4865 -130.80499 997
44.530499 -130.672 996
45.618099 -130.67101 996
46.705601 -130.67 996
47.793098 -130.668 996
48.880501 -130.66701 996
49.917801 -130.534 995
51.004101 -130.533 995
52.090302 -130.53101 995
53.2299 -130.661 996
54.3172 -130.659 996
55.460098 -130.789 997
56.548302 -130.787 997
57.694302 -130.916 998
58.7836 -130.91499 998
59.9328 -131.04401 999
61.023102 -131.04201 999
62.1133 -131.03999 999
63.203499 -131.039 999
64.293602 -131.037 999
65.449097 -131.166 1000
66.540298 -131.164 1000
67.631302 -131.162 1000
68.722298 -131.16 1000
69.883102 -131.289 1001
70.975098 -131.287 1001
72.139 -131.416 1002
73.232002 -131.414 1002
74.3992 -131.543 1003
75.493103 -131.53999 1003
76.586998 -131.53799 1003
77.758301 -131.66701 1004
78.931602 -131.79601 1005
80.027496 -131.793 1005
81.123497 -131.791 1005
82.301003 -131.92 1006
83.397797 -131.91701 1006
84.494499 -131.91499 1006
85.676399 -132.043 1007
86.774101 -132.041 1007
87.871696 -132.03799 1007
89.057602 -132.16701 1008
90.245697 -132.295 1009
91.435799 -132.423 1010
92.5364 -132.42101 1010
93.729698 -132.549 1011
94.831398 -132.54601 1011
96.027802 -132.674 1012
97.226303 -132.80299 1013
98.427002 -132.931 1014
99.6297 -133.05901 1015
100.834 -133.187 1016
101.941 -133.18401 1016
103.149 -133.312 1017
104.462 -133.571 1019
105.779 -133.83 1021
107.1 -134.089 1023
17.5245 -131.04201 1007
18.5877 -130.782 1005
19.6661 -130.651 1004
20.721701 -130.39 1002
21.7946 -130.259 1001
22.888201 -130.259 1001
23.957899 -130.12801 1000
25.025299 -129.99699 999
26.0905 -129.866 998
27.1535 -129.735 997
28.242599 -129.73399 997
29.331699 -129.73399 997
30.390301 -129.603 996
31.4466 -129.47099 995
32.533501 -129.47099 995
33.620399 -129.47 995
34.707199 -129.46899 995
35.7939 -129.468 995
36.880699 -129.466 995
37.9674 -129.465 995
39.0541 -129.464 995
40.1408 -129.463 995
41.268902 -129.592 996
42.356499 -129.591 996
43.444199 -129.589 996
44.487099 -129.45799 995
45.573601 -129.457 995
46.660099 -129.455 995
47.746498 -129.45399 995
48.832901 -129.452 995
49.9193 -129.451 995
50.9543 -129.319 994
52.039501 -129.31799 994
53.178101 -129.446 995
54.318802 -129.575 996
55.406101 -129.573 996
56.549999 -129.702 997
57.695999 -129.83 998
58.785301 -129.828 998
59.934601 -129.957 999
61.024899 -129.955 999
62.115101 -129.953 999
63.205299 -129.951 999
64.295502 -129.94901 999
65.385597 -129.94701 999
66.542198 -130.075 1000
67.633301 -130.073 1000
68.724403 -130.071 1000
69.885201 -130.19901 1001
70.977203 -130.19701 1001
72.141197 -130.325 1002
73.2342 -130.323 1002
74.401299 -130.451 1003
75.4953 -130.44901 1003
76.589302 -130.44701 1003
77.760597 -130.57401 1004
78.933998 -130.702 1005
80.0299 -130.7 1005
81.1259 -130.69701 1005
82.303497 -130.825 1006
83.400299 -130.82201 1006
84.5811 -130.95 1007
85.678802 -130.94701 1007
86.8629 -131.075 1008
87.961601 -131.07201 1008
89.148598 -131.2 1009
90.3377 -131.327 1010
91.529099 -131.455 1011
92.630798 -131.452 1011
93.825203 -131.57899 1012
94.928001 -131.576 1012
96.125504 -131.70399 1013
97.325104 -131.83099 1014
98.527 -131.95799 1015
99.730797 -132.08501 1016
100.937 -132.21201 1017
102.145 -132.339 1018
103.355 -132.466 1019
104.567 -132.593 1020
105.885 -132.85001 1022
17.507601 -129.817 1006
18.5697 -129.558 1004
19.6471 -129.429 1003
20.701599 -129.17 1001
21.773399 -129.03999 1000
22.8431 -128.911 999
23.9345 -128.91 999
25.0009 -128.78 998
26.0651 -128.64999 997
27.127001 -128.521 996
28.215099 -128.52 996
29.303101 -128.519 996
30.360701 -128.38901 995
31.447599 -128.388 995
32.5345 -128.38699 995
33.621399 -128.386 995
34.708199 -128.38499 995
35.794998 -128.384 995
36.881802 -128.383 995
37.930401 -128.25301 994
39.015999 -128.252 994
40.101601 -128.25101 994
41.187199 -128.24899 994
42.3153 -128.377 995
43.3582 -128.24699 994
44.443699 -128.246 994
45.529099 -128.244 994
46.614601 -128.243 994
47.699902 -128.242 994
48.785301 -128.24001 994
49.870499 -128.239 994
50.955799 -128.237 994
52.0411 -128.23599 994
53.126202 -128.23399 994
54.2659 -128.362 995
55.3521 -128.36 995
56.494999 -128.487 996
57.639999 -128.61501 997
58.787102 -128.742 998
59.936401 -128.869 999
61.026699 -128.867 999
62.117001 -128.866 999
63.207199 -128.864 999
64.297501 -128.862 999
65.387497 -128.86 999
66.544197 -128.987 1000
67.635399 -128.985 1000
68.726402 -128.983 1000
69.887199 -129.11 1001
70.979301 -129.108 1001
72.143303 -129.235 1002
73.236397 -129.233 1002
74.403503 -129.35899 1003
75.497498 -129.35699 1003
76.591499 -129.355 1003
77.762901 -129.48199 1004
78.936401 -129.608 1005
80.032303 -129.606 1005
81.128197 -129.604 1005
82.305901 -129.73 1006
83.402802 -129.728 1006
84.583603 -129.854 1007
85.766502 -129.981 1008
86.865402 -129.978 1008
88.051498 -130.104 1009
89.151199 -130.10201 1009
90.340401 -130.228 1010
91.5317 -130.354 1011
92.725197 -130.481 1012
93.828003 -130.478 1012
95.024498 -130.604 1013
96.223099 -130.73 1014
97.424004 -130.856 1015
98.626801 -130.98199 1016
99.831902 -131.108 1017
101.039 -131.23399 1018
102.248 -131.36 1019
103.459 -131.48599 1020
104.673 -131.612 1021
105.992 -131.867 1023
107.315 -132.12199 1025
17.4907 -128.593 1005
18.5518 -128.33701 1003
19.6085 -128.08 1001
20.681499 -127.952 1000
21.7523 -127.823 999
22.8209 -127.695 998
23.8873 -127.566 997
24.976601 -127.565 997
26.0397 -127.437 996
27.100599 -127.308 995
28.187599 -127.307 995
29.274599 -127.306 995
30.330999 -127.178 994
31.416901 -127.177 994
32.502701 -127.176 994
33.5886 -127.175 994
34.674301 -127.174 994
35.760101 -127.173 994
36.845798 -127.172 994
37.893299 -127.043 993
39.017101 -127.17 994
40.102798 -127.168 994
41.1884 -127.167 994
42.273998 -127.166 994
43.359501 -127.165 994
44.400299 -127.035 993
45.484699 -127.034 993
46.569099 -127.033 993
47.6534 -127.031 993
48.737598 -127.03 993
49.821899 -127.029 993
50.957298 -127.155 994
52.042599 -127.154 994
53.1278 -127.152 994
54.267502 -127.278 995
55.353699 -127.277 995
56.496601 -127.403 996
57.641701 -127.529 997
58.7299 -127.527 997
59.878101 -127.654 998
60.9674 -127.652 998
62.1189 -127.778 999
63.209099 -127.776 999
64.299301 -127.774 999
65.389503 -127.772 999
66.546204 -127.898 1000
67.637299 -127.896 1000
68.728401 -127.894 1000
69.819504 -127.892 1000
70.9814 -128.01801 1001
72.1455 -128.144 1002
73.238503 -128.142 1002
74.405701 -128.26801 1003
75.499702 -128.265 1003
76.593697 -128.263 1003
77.687698 -128.261 1003
78.860199 -128.38699 1004
80.034698 -128.51199 1005
81.1306 -128.50999 1005
82.308296 -128.63499 1006
83.405296 -128.633 1006
84.586098 -128.758 1007
85.768997 -128.884 1008
86.954002 -129.009 1009
88.0541 -129.006 1009
89.242203 -129.132 1010
90.432503 -129.257 1011
91.624901 -129.382 1012
92.727798 -129.379 1012
93.9235 -129.505 1013
95.027298 -129.502 1013
96.225998 -129.627 1014
97.426804 -129.752 1015
98.6297 -129.877 1016
99.834702 -130.002 1017
101.042 -130.127 1018
102.251 -130.252 1019
103.564 -130.504 1021
104.778 -130.629 1022
106.099 -130.882 1024
107.423 -131.134 1026
16.4093 -127.626 1006
17.4564 -127.245 1003
18.5338 -127.118 1002
19.5895 -126.863 1000
20.6614 -126.736 999
21.7311 -126.608 998
22.8216 -126.608 998
23.864 -126.353 996
24.9522 -126.353 996
26.014299 -126.225 995
27.1014 -126.224 995
28.1884 -126.224 995
29.246 -126.096 994
30.3319 -126.095 994
31.417801 -126.094 994
32.5037 -126.093 994
33.5895 -126.092 994
34.675301 -126.091 994
35.761101 -126.09 994
36.809799 -125.962 993
37.894402 -125.961 993
38.979 -125.96 993
40.103901 -126.086 994
41.189602 -126.085 994
42.2327 -125.957 993
43.3172 -125.955 993
44.356899 -125.827 992
45.440201 -125.826 992
46.523499 -125.825 992
47.606701 -125.823 992
48.689999 -125.822 992
49.773102 -125.82 992
50.907501 -125.946 993
51.991699 -125.944 993
53.129398 -126.07 994
54.2691 -126.195 995
55.355301 -126.193 995
56.441502 -126.192 995
57.585499 -126.317 996
58.731701 -126.442 997
59.819901 -126.44 997
60.9692 -126.565 998
62.058399 -126.564 998
63.147701 -126.562 998
64.236801 -126.56 998
65.391403 -126.685 999
66.548103 -126.81 1000
67.639297 -126.808 1000
68.7304 -126.806 1000
69.821503 -126.804 1000
70.983398 -126.928 1001
72.0756 -126.926 1001
73.2407 -127.051 1002
74.333702 -127.049 1002
75.501999 -127.174 1003
76.596001 -127.171 1003
77.690002 -127.169 1003
78.862503 -127.294 1004
79.957397 -127.291 1004
81.133003 -127.416 1005
82.228798 -127.413 1005
83.4076 -127.538 1006
84.588501 -127.662 1007
85.7715 -127.786 1008
86.956596 -127.911 1009
88.056503 -127.908 1009
89.244797 -128.032 1010
90.435204 -128.157 1011
91.627602 -128.28101 1012
92.822098 -128.405 1013
93.926201 -128.40199 1013
95.217697 -128.653 1015
96.323601 -128.64999 1015
97.525497 -128.774 1016
98.826698 -129.02499 1018
100.034 -129.149 1019
101.243 -129.27299 1020
102.455 -129.396 1021
103.668 -129.52 1022
104.986 -129.771 1024
106.309 -130.021 1026
16.3771 -126.279 1004
17.4394 -126.027 1002
18.5158 -125.9 1001
19.5704 -125.648 999
20.6413 -125.522 998
21.709999 -125.396 997
22.799299 -125.395 997
23.8647 -125.269 996
24.9279 -125.142 995
25.9888 -125.016 994
27.0749 -125.015 994
28.1609 -125.014 994
29.2174 -124.888 993
30.302299 -124.887 993
31.3871 -124.886 993
32.471901 -124.885 993
33.556702 -124.884 993
34.641499 -124.883 993
35.7262 -124.882 993
36.810902 -124.881 993
37.857399 -124.754 992
38.940899 -124.753 992
40.024399 -124.752 992
41.1493 -124.876 993
42.233898 -124.875 993
43.274799 -124.748 992
44.3582 -124.747 992
45.441502 -124.746 992
46.524799 -124.744 992
47.608101 -124.743 992
48.691399 -124.742 992
49.774601 -124.74 992
50.8578 -124.739 992
51.993198 -124.863 993
53.0774 -124.861 993
54.216099 -124.986 994
55.3013 -124.984 994
56.443199 -125.108 995
57.5294 -125.107 995
58.6744 -125.231 996
59.821701 -125.355 997
60.909901 -125.353 997
61.9981 -125.351 997
63.149502 -125.475 998
64.238701 -125.473 998
65.327797 -125.471 998
66.483498 -125.595 999
67.573601 -125.593 999
68.732399 -125.717 1000
69.823502 -125.715 1000
70.985497 -125.839 1001
72.077599 -125.837 1001
73.242798 -125.96 1002
74.335899 -125.958 1002
75.428902 -125.956 1002
76.598198 -126.079 1003
77.6922 -126.077 1003
78.864799 -126.201 1004
79.959702 -126.198 1004
81.1353 -126.322 1005
82.231201 -126.319 1005
83.410004 -126.443 1006
84.506897 -126.44 1006
85.688904 -126.564 1007
86.872902 -126.687 1008
88.058998 -126.81 1009
89.247398 -126.933 1010
90.348297 -126.931 1010
91.630302 -127.179 1012
92.824799 -127.302 1013
94.0215 -127.425 1014
95.220398 -127.548 1015
96.516296 -127.797 1017
97.720299 -127.92 1018
98.926498 -128.043 1019
100.135 -128.16499 1020
101.345 -128.28799 1021
102.558 -128.411 1022
103.874 -128.659 1024
105.092 -128.782 1025
106.415 -129.03 1027
16.3612 -125.06 1003
17.422501 -124.811 1001
18.497801 -124.685 1000
19.570999 -124.56 999
20.621201 -124.31 997
21.688801 -124.185 996
22.7542 -124.06 995
23.8414 -124.059 995
24.9035 -123.934 994
25.989599 -123.933 994
27.048401 -123.808 993
28.1334 -123.807 993
29.2183 -123.806 993
30.2726 -123.68 992
31.3564 -123.68 992
32.440102 -123.679 992
33.5238 -123.678 992
34.607498 -123.677 992
35.7271 -123.8 993
36.811901 -123.799 993
37.820301 -123.549 991
38.902802 -123.548 991
39.985199 -123.547 991
41.1091 -123.67 992
42.1926 -123.669 992
43.276001 -123.668 992
44.314701 -123.542 991
45.396999 -123.541 991
46.479301 -123.539 991
47.561501 -123.538 991
48.692799 -123.661 992
49.776001 -123.66 992
50.8592 -123.658 992
51.942402 -123.657 992
53.078899 -123.78 993
54.163101 -123.779 993
55.302898 -123.902 994
56.444801 -124.025 995
57.530998 -124.023 995
58.617199 -124.021 995
59.763401 -124.144 996
60.850601 -124.143 996
61.937698 -124.141 996
63.088001 -124.264 997
64.176201 -124.262 997
65.329697 -124.385 998
66.4188 -124.383 998
67.5756 -124.505 999
68.734398 -124.628 1000
69.8255 -124.626 1000
70.987503 -124.749 1001
72.079597 -124.747 1001
73.1717 -124.745 1001
74.263802 -124.743 1001
75.431099 -124.865 1002
76.524002 -124.863 1002
77.694397 -124.985 1003
78.866898 -125.108 1004
79.961899 -125.105 1004
81.137703 -125.228 1005
82.315399 -125.35 1006
83.412399 -125.348 1006
84.5933 -125.47 1007
85.776497 -125.592 1008
86.961601 -125.714 1009
88.148804 -125.836 1010
89.249802 -125.834 1010
90.440201 -125.956 1011
91.632896 -126.078 1012
92.827499 -126.2 1013
94.0242 -126.322 1014
95.317001 -126.568 1016
96.518997 -126.69 1017
97.723099 -126.812 1018
98.929398 -126.934 1019
100.236 -127.18 1021
101.448 -127.302 1022
102.762 -127.548 1024
103.978 -127.67 1025
105.3 -127.916 1027
106.626 -128.162 1029
16.3291 -123.721 1001
17.4056 -123.597 1000
18.479799 -123.472 999
19.532301 -123.225 997
20.601101 -123.101 996
21.6677 -122.976 995
22.732 -122.852 994
23.8181 -122.852 994
24.8792 -122.727 993
25.964199 -122.727 993
27.049101 -122.726 993
28.1341 -122.725 993
29.189699 -122.601 992
30.2735 -122.6 992
31.3573 -122.599 992
32.408298 -122.474 991
33.491001 -122.474 991
34.573601 -122.473 991
35.6922 -122.595 992
36.775799 -122.594 992
37.8214 -122.47 991
38.9039 -122.468 991
39.986401 -122.467 991
41.068802 -122.466 991
42.151199 -122.465 991
43.233601 -122.464 991
44.271198 -122.339 990
45.352501 -122.338 990
46.433701 -122.336 990
47.5149 -122.335 990
48.6451 -122.457 991
49.7272 -122.456 991
50.860699 -122.578 992
51.943901 -122.577 992
53.080502 -122.699 993
54.1647 -122.697 993
55.304501 -122.819 994
56.389702 -122.817 994
57.5327 -122.939 995
58.6189 -122.938 995
59.705002 -122.936 995
60.8522 -123.058 996
61.939499 -123.056 996
63.089802 -123.178 997
64.178001 -123.176 997
65.331596 -123.298 998
66.420799 -123.296 998
67.577499 -123.418 999
68.667603 -123.416 999
69.827599 -123.537 1000
70.989601 -123.659 1001
72.081703 -123.657 1001
73.173798 -123.655 1001
74.2658 -123.653 1001
75.433197 -123.774 1002
76.526199 -123.772 1002
77.696602 -123.893 1003
78.869202 -124.015 1004
80.0438 -124.136 1005
81.139999 -124.134 1005
82.317802 -124.255 1006
83.497704 -124.376 1007
84.679703 -124.497 1008
85.863899 -124.618 1009
87.050301 -124.739 1010
88.238602 -124.86 1011
89.340797 -124.858 1011
90.442802 -124.855 1011
91.6353 -124.976 1012
92.830101 -125.097 1013
94.119598 -125.341 1015
95.319504 -125.462 1016
96.616501 -125.706 1018
97.821899 -125.827 1019
99.029297 -125.948 1020
100.337 -126.192 1022
101.55 -126.313 1023
102.865 -126.557 1025
104.184 -126.801 1027
105.508 -127.045 1029
16.3132 -122.507 1000
17.388599 -122.385 999
18.4433 -122.139 997
19.5133 -122.016 996
20.580999 -121.893 995
21.6465 -121.77 994
22.709801 -121.647 993
23.7948 -121.646 993
24.8799 -121.645 993
25.9387 -121.522 992
27.022699 -121.522 992
28.1066 -121.521 992
29.1611 -121.397 991
30.243799 -121.397 991
31.3265 -121.396 991
32.409302 -121.395 991
33.458099 -121.271 990
34.5397 -121.27 990
35.6572 -121.392 991
36.739799 -121.391 991
37.784302 -121.267 990
38.8657 -121.266 990
39.947102 -121.265 990
41.0285 -121.264 990
42.109901 -121.263 990
43.1912 -121.262 990
44.272499 -121.261 990
45.353802 -121.259 990
46.435001 -121.258 990
47.516201 -121.257 990
48.597401 -121.255 990
49.728699 -121.376 991
50.810799 -121.375 991
51.9454 -121.496 992
53.0285 -121.495 992
54.166199 -121.615 993
55.306 -121.736 994
56.3913 -121.735 994
57.534302 -121.856 995
58.620602 -121.854 995
59.706699 -121.852 995
60.7929 -121.851 995
61.9412 -121.971 996
63.0284 -121.97 996
64.179802 -122.09 997
65.267899 -122.089 997
66.4226 -122.209 998
67.511703 -122.207 998
68.669502 -122.328 999
69.829498 -122.448 1000
70.9207 -122.446 1000
72.083801 -122.567 1001
73.175903 -122.565 1001
74.267998 -122.563 1001
75.435402 -122.683 1002
76.528397 -122.681 1002
77.698898 -122.801 1003
78.871399 -122.921 1004
80.046097 -123.042 1005
81.142197 -123.039 1005
82.320099 -123.159 1006
83.500099 -123.28 1007
84.682098 -123.4 1008
85.866302 -123.52 1009
87.052597 -123.64 1010
88.241096 -123.76 1011
89.3433 -123.757 1011
90.534897 -123.877 1012
91.7285 -123.997 1013
92.9244 -124.117 1014
94.122299 -124.236 1015
95.322197 -124.356 1016
96.5243 -124.476 1017
97.824699 -124.718 1019
99.032097 -124.838 1020
100.34 -125.08 1022
101.652 -125.322 1024
102.968 -125.564 1026
104.187 -125.683 1027
105.613 -126.047 1030
14.1703 -121.783 1003
15.236 -121.54 1001
16.2973 -121.296 999
17.3543 -121.053 997
18.425301 -120.931 996
19.494101 -120.809 995
20.5609 -120.687 994
21.625299 -120.565 993
22.6875 -120.443 992
23.7715 -120.443 992
24.855499 -120.442 992
25.9133 -120.32 991
26.996201 -120.319 991
28.079 -120.319 991
29.1618 -120.318 991
30.2141 -120.195 990
31.295799 -120.195 990
32.377499 -120.194 990
33.425301 -120.071 989
34.505798 -120.071 989
35.5863 -120.07 989
36.7038 -120.19 990
37.747101 -120.067 989
38.827499 -120.066 989
39.907902 -120.065 989
40.9883 -120.064 989
42.0686 -120.063 989
43.192402 -120.183 990
44.2738 -120.182 990
45.3092 -120.059 989
46.3894 -120.058 989
47.469601 -120.057 989
48.598701 -120.177 990
49.679901 -120.175 990
50.812199 -120.295 991
51.894501 -120.294 991
53.029999 -120.414 992
54.113201 -120.412 992
55.251999 -120.532 993
56.336102 -120.531 993
57.4781 -120.651 994
58.563301 -120.649 994
59.708401 -120.769 995
60.794601 -120.767 995
61.880699 -120.765 995
63.030102 -120.885 996
64.117302 -120.883 996
65.269798 -121.003 997
66.357903 -121.001 997
67.513702 -121.12 998
68.602699 -121.118 998
69.761597 -121.238 999
70.851799 -121.236 999
72.013802 -121.355 1000
73.178001 -121.475 1001
74.269997 -121.472 1001
75.437401 -121.592 1002
76.530403 -121.59 1002
77.700996 -121.709 1003
78.795097 -121.707 1003
79.968697 -121.826 1004
81.144402 -121.945 1005
82.322304 -122.064 1006
83.502403 -122.183 1007
84.684502 -122.302 1008
85.868698 -122.421 1009
87.055099 -122.54 1010
88.2435 -122.659 1011
89.345802 -122.656 1011
90.537399 -122.775 1012
91.731102 -122.894 1013
92.926903 -123.013 1014
94.124901 -123.131 1015
95.324898 -123.25 1016
96.621902 -123.49 1018
97.827301 -123.609 1019
99.131897 -123.849 1021
100.343 -123.967 1022
101.655 -124.207 1024
102.971 -124.447 1026
104.291 -124.687 1028
105.616 -124.926 1030
107.049 -125.287 1033
14.1424 -120.449 1001
15.206 -120.208 999
16.281401 -120.088 998
17.3547 -119.967 997
18.407301 -119.726 995
19.4751 -119.605 994
20.561399 -119.604 994
21.604099 -119.363 992
22.688101 -119.363 992
23.7722 -119.362 992
24.8311 -119.241 991
25.914 -119.24 991
26.996901 -119.239 991
28.0798 -119.239 991
29.1332 -119.118 990
30.214899 -119.117 990
31.2967 -119.116 990
32.345699 -118.995 989
33.426201 -118.994 989
34.506699 -118.993 989
35.5872 -118.992 989
36.667702 -118.991 989
37.748199 -118.99 989
38.828602 -118.989 989
39.909 -118.988 989
40.989399 -118.987 989
42.069698 -118.986 989
43.150002 -118.984 989
44.275002 -119.103 990
45.310501 -118.982 989
46.390701 -118.981 989
47.470901 -118.979 989
48.550999 -118.978 989
49.681301 -119.097 990
50.762402 -119.096 990
51.895901 -119.214 991
52.9781 -119.213 991
54.1147 -119.332 992
55.197899 -119.33 992
56.3377 -119.449 993
57.421799 -119.447 993
58.564899 -119.566 994
59.650101 -119.564 994
60.796299 -119.683 995
61.8825 -119.681 995
62.968601 -119.68 995
64.119003 -119.798 996
65.2061 -119.796 996
66.359703 -119.915 997
67.4478 -119.913 997
68.604698 -120.031 998
69.693703 -120.029 998
70.853798 -120.148 999
71.943802 -120.146 999
73.106903 -120.264 1000
74.197899 -120.262 1000
75.364197 -120.38 1001
76.5326 -120.498 1002
77.703201 -120.617 1003
78.875801 -120.735 1004
79.970901 -120.732 1004
81.146698 -120.85 1005
82.406403 -121.089 1007
83.587502 -121.207 1008
84.686897 -121.204 1008
85.871101 -121.322 1009
87.057503 -121.44 1010
88.245903 -121.558 1011
89.436501 -121.676 1012
90.539902 -121.673 1012
91.733597 -121.791 1013
92.929398 -121.909 1014
94.2201 -122.147 1016
95.421402 -122.264 1017
96.624603 -122.382 1018
97.926003 -122.62 1020
99.134598 -122.737 1021
100.443 -122.975 1023
101.657 -123.092 1024
103.074 -123.45 1027
104.396 -123.688 1029
105.722 -123.925 1031
107.052 -124.163 1033
13.0618 -119.478 1002
14.1287 -119.239 1000
15.1911 -119 998
16.2656 -118.881 997
17.3204 -118.642 995
18.389299 -118.522 994
19.455999 -118.402 993
20.5205 -118.283 992
21.6047 -118.282 992
22.665899 -118.162 991
23.748899 -118.162 991
24.806801 -118.042 990
25.8624 -117.922 989
26.9704 -118.04 990
28.0522 -118.04 990
29.104601 -117.92 989
30.1852 -117.919 989
31.2659 -117.918 989
32.3465 -117.917 989
33.393299 -117.797 988
34.472801 -117.796 988
35.5882 -117.914 989
36.668701 -117.913 989
37.749199 -117.912 989
38.8297 -117.911 989
39.910099 -117.91 989
40.990501 -117.909 989
42.0709 -117.908 989
43.151199 -117.907 989
44.231499 -117.906 989
45.311798 -117.904 989
46.391998 -117.903 989
47.472198 -117.902 989
48.552399 -117.9 989
49.682701 -118.018 990
50.763802 -118.017 990
51.897301 -118.135 991
52.9795 -118.133 991
54.0616 -118.132 991
55.199402 -118.25 992
56.282501 -118.248 992
57.423401 -118.366 993
58.507599 -118.364 993
59.651798 -118.482 994
60.7369 -118.48 994
61.884201 -118.597 995
62.970299 -118.596 995
64.056396 -118.594 995
65.142502 -118.592 995
66.294998 -118.71 996
67.382103 -118.708 996
68.537804 -118.825 997
69.695702 -118.942 998
70.784798 -118.94 998
71.945801 -119.058 999
73.035797 -119.056 999
74.199997 -119.173 1000
75.366302 -119.29 1001
76.534698 -119.407 1002
77.7052 -119.524 1003
78.877998 -119.641 1004
80.052803 -119.758 1005
81.148903 -119.756 1005
82.408699 -119.992 1007
83.589897 -120.109 1008
84.773201 -120.226 1009
85.958603 -120.343 1010
87.146103 -120.459 1011
88.335701 -120.576 1012
89.439003 -120.574 1012
90.631897 -120.69 1013
91.736099 -120.688 1013
93.023697 -120.924 1015
94.222702 -121.04 1016
95.423897 -121.157 1017
96.627296 -121.273 1018
97.928703 -121.509 1020
99.234299 -121.744 1022
100.446 -121.861 1023
101.759 -122.096 1025
103.077 -122.332 1027
104.399 -122.567 1029
105.725 -122.803 1031
11.9789 -118.505 1003
13.0361 -118.15 1000
14.1008 -117.913 998
15.1763 -117.795 997
16.249701 -117.676 996
17.3034 -117.439 994
18.3713 -117.321 993
19.436899 -117.202 992
20.500401 -117.083 991
21.5835 -117.083 991
22.6436 -116.964 990
23.7255 -116.963 990
24.8074 -116.963 990
25.8631 -116.844 989
26.943899 -116.843 989
28.024599 -116.843 989
29.1054 -116.842 989
30.1555 -116.723 988
31.2351 -116.722 988
32.314701 -116.721 988
33.360401 -116.602 987
34.4389 -116.601 987
35.5532 -116.718 988
36.632702 -116.717 988
37.712101 -116.716 988
38.7915 -116.715 988
39.870899 -116.714 988
40.950199 -116.713 988
42.029499 -116.712 988
43.152401 -116.829 989
44.2327 -116.828 989
45.313 -116.827 989
46.346298 -116.707 988
47.425499 -116.706 988
48.5536 -116.823 989
49.633801 -116.821 989
50.765202 -116.938 990
51.846401 -116.937 990
52.9809 -117.054 991
54.063099 -117.052 991
55.145302 -117.051 991
56.2841 -117.167 992
57.367199 -117.166 992
58.509201 -117.282 993
59.5933 -117.281 993
60.738602 -117.397 994
61.8237 -117.395 994
62.972 -117.512 995
64.058197 -117.51 995
65.144302 -117.508 995
66.230301 -117.506 995
67.383904 -117.623 996
68.539703 -117.739 997
69.627701 -117.737 997
70.786598 -117.853 998
71.9478 -117.969 999
73.037804 -117.967 999
74.202003 -118.084 1000
75.368401 -118.2 1001
76.536797 -118.316 1002
77.707397 -118.432 1003
78.880096 -118.548 1004
80.055 -118.663 1005
81.231903 -118.779 1006
82.411003 -118.895 1007
83.592201 -119.011 1008
84.775398 -119.127 1009
85.960999 -119.243 1010
87.148499 -119.358 1011
88.338097 -119.474 1012
89.5298 -119.59 1013
90.634201 -119.587 1013
91.829201 -119.703 1014
93.026199 -119.818 1015
94.318001 -120.052 1017
95.520302 -120.167 1018
96.7248 -120.283 1019
97.931396 -120.398 1020
99.237 -120.632 1022
100.547 -120.865 1024
101.762 -120.98 1025
103.08 -121.214 1027
104.503 -121.565 1030
10.8829 -117.412 1003
11.9553 -117.177 1001
13.0234 -116.943 999
14.087 -116.708 997
15.1615 -116.591 996
16.217501 -116.356 994
17.286501 -116.239 993
18.3533 -116.121 992
19.417801 -116.004 991
20.4802 -115.886 990
21.540501 -115.769 989
22.621401 -115.768 989
23.7262 -115.884 990
24.783001 -115.767 989
25.8638 -115.766 989
26.9174 -115.648 988
28.0254 -115.765 989
29.1061 -115.764 989
30.1563 -115.646 988
31.235901 -115.645 988
32.282799 -115.527 987
33.361301 -115.526 987
34.4398 -115.526 987
35.5182 -115.525 987
36.5966 -115.524 987
37.7131 -115.64 988
38.7925 -115.639 988
39.871899 -115.638 988
40.951302 -115.636 988
42.030602 -115.635 988
43.109901 -115.634 988
44.233898 -115.75 989
45.314201 -115.749 989
46.347599 -115.631 988
47.3787 -115.512 987
48.505901 -115.628 988
49.635201 -115.744 989
50.715302 -115.742 989
51.847801 -115.858 990
52.928902 -115.857 990
54.064602 -115.972 991
55.146702 -115.971 991
56.285599 -116.086 992
57.368801 -116.085 992
58.4519 -116.083 992
59.534901 -116.082 992
60.6791 -116.197 993
61.825401 -116.312 994
62.9105 -116.311 994
64.059898 -116.426 995
65.146004 -116.424 995
66.232101 -116.422 995
67.385803 -116.538 996
68.541496 -116.653 997
69.629601 -116.651 997
70.788498 -116.766 998
71.877602 -116.764 998
73.039703 -116.879 999
74.204002 -116.994 1000
75.370399 -117.109 1001
76.538902 -117.224 1002
77.709503 -117.339 1003
78.882202 -117.454 1004
80.057198 -117.569 1005
81.2341 -117.684 1006
82.4132 -117.798 1007
83.594398 -117.913 1008
84.777702 -118.028 1009
85.963203 -118.142 1010
87.2369 -118.374 1012
88.3405 -118.372 1012
89.532303 -118.486 1013
90.726097 -118.601 1014
91.922096 -118.715 1015
93.120399 -118.83 1016
94.320602 -118.944 1017
95.522903 -119.059 1018
96.727303 -119.173 1019
98.029999 -119.404 1021
99.2397 -119.519 1022
100.55 -119.75 1024
101.864 -119.981 1026
103.183 -120.212 1028
104.506 -120.443 1030
105.935 -120.791 1033
9.8063898 -116.55 1005
10.8724 -116.202 1002
11.9437 -115.97 1000
13.0107 -115.738 998
14.0732 -115.506 996
15.1467 -115.389 995
16.201599 -115.157 993
17.269501 -115.041 992
18.335199 -114.924 991
19.3988 -114.808 990
20.480801 -114.807 990
21.541 -114.691 989
22.5991 -114.574 988
23.6789 -114.573 988
24.783701 -114.689 989
25.8384 -114.572 988
26.9181 -114.571 988
27.997801 -114.571 988
29.077499 -114.57 988
30.157101 -114.569 988
31.2052 -114.452 987
32.283699 -114.452 987
33.3284 -114.335 986
34.4058 -114.334 986
35.4832 -114.333 986
36.560501 -114.332 986
37.637798 -114.331 986
38.754299 -114.446 987
39.8326 -114.445 987
40.9109 -114.444 987
41.989201 -114.443 987
43.111099 -114.557 988
44.190399 -114.556 988
45.269699 -114.555 988
46.3489 -114.554 988
47.380001 -114.437 987
48.507198 -114.551 988
49.5863 -114.55 988
50.665401 -114.549 988
51.796799 -114.663 989
52.8769 -114.662 989
54.011501 -114.776 990
55.148201 -114.891 991
56.2304 -114.889 991
57.3703 -115.004 992
58.453499 -115.002 992
59.536598 -115.001 992
60.680698 -115.115 993
61.764801 -115.113 993
62.912201 -115.228 994
63.997299 -115.226 994
65.082298 -115.224 994
66.233902 -115.338 995
67.319901 -115.336 995
68.474602 -115.451 996
69.6315 -115.565 997
70.790497 -115.679 998
71.879501 -115.677 998
73.041702 -115.791 999
74.2061 -115.905 1000
75.372498 -116.019 1001
76.541 -116.132 1002
77.711601 -116.246 1003
78.8843 -116.36 1004
80.059196 -116.474 1005
81.317001 -116.703 1007
82.497299 -116.817 1008
83.679604 -116.931 1009
84.863998 -117.045 1010
86.050598 -117.158 1011
87.239304 -117.272 1012
88.430199 -117.385 1013
89.534698 -117.383 1013
90.7286 -117.496 1014
91.924599 -117.61 1015
93.122902 -117.723 1016
94.415901 -117.953 1018
95.619301 -118.066 1019
96.824799 -118.179 1020
98.0326 -118.292 1021
99.3395 -118.522 1023
100.552 -118.635 1024
101.867 -118.864 1026
103.185 -119.093 1028
104.508 -119.322 1030
106.041 -119.782 1034
9.7871199 -115.225 1003
10.8618 -114.995 1001
11.932 -114.765 999
12.9979 -114.535 997
14.0595 -114.305 995
15.1318 -114.19 994
16.202 -114.074 993
17.269899 -113.959 992
18.3172 -113.729 990
19.3797 -113.614 989
20.439899 -113.498 988
21.5198 -113.498 988
22.5767 -113.382 987
23.6555 -113.382 987
24.7342 -113.381 987
25.812901 -113.38 987
