ply
format ascii 1.0
comment PCL generated
element vertex 2071
property float x
property float y
property float z
element camera 0
property float view_px
property float view_py
property float view_pz
property float x_axisx
property float x_axisy
property float x_axisz
property float y_axisx
property float y_axisy
property float y_axisz
property float z_axisx
property float z_axisy
property float z_axisz
property float focal
property float scalex
property float scaley
property float centerx
property float centery
property int viewportx
property int viewporty
property float k1
property float k2
end_header
131.86301 -202.364 994
133.075 -202.562 995
134.423 -202.963 997
135.64 -203.161 998
136.996 -203.563 1000
138.356 -203.964 1002
139.86 -204.569 1005
141.229 -204.97099 1007
142.603 -205.37199 1009
143.981 -205.77299 1011
145.507 -206.37801 1014
147.03999 -206.98199 1017
148.724 -207.78999 1021
150.27 -208.395 1024
151.97099 -209.203 1028
62.033199 -206.424 1018
62.893398 -205.61 1014
63.807999 -204.99899 1011
64.715897 -204.388 1008
65.617302 -203.77699 1005
66.578499 -203.368 1003
67.535301 -202.96001 1001
68.487701 -202.552 999
69.435699 -202.14301 997
70.379402 -201.735 995
71.390297 -201.52901 994
72.399101 -201.323 993
73.405602 -201.117 992
74.410004 -200.911 991
75.412102 -200.705 990
76.334702 -200.297 988
77.3312 -200.091 987
78.3256 -199.88499 986
79.317596 -199.679 985
80.225899 -199.27 983
81.212402 -199.064 982
82.1968 -198.85699 981
83.263802 -198.854 981
84.244698 -198.64799 980
85.310402 -198.644 980
86.288002 -198.438 979
87.352501 -198.43401 979
88.326797 -198.228 978
89.389999 -198.224 978
90.4533 -198.22 978
91.516602 -198.216 978
92.579803 -198.21201 978
93.642799 -198.20799 978
94.705902 -198.20399 978
95.768898 -198.2 978
96.831703 -198.196 978
97.8946 -198.192 978
98.856201 -197.985 977
99.917801 -197.981 977
100.876 -197.774 976
101.936 -197.77 976
103.102 -197.968 977
104.164 -197.964 977
105.225 -197.96001 977
106.286 -197.955 977
107.347 -197.951 977
108.519 -198.149 978
109.581 -198.144 978
110.756 -198.342 979
111.934 -198.53999 980
112.998 -198.536 980
114.178 -198.733 981
115.243 -198.729 981
116.426 -198.92599 982
117.492 -198.922 982
118.679 -199.119 983
119.746 -199.114 983
120.935 -199.312 984
122.127 -199.509 985
123.321 -199.707 986
124.517 -199.90401 987
125.588 -199.899 987
126.787 -200.09599 988
128.117 -200.496 990
129.321 -200.69299 991
130.528 -200.89101 992
131.869 -201.28999 994
133.214 -201.69 996
134.564 -202.089 998
135.782 -202.286 999
137.13901 -202.686 1001
138.5 -203.08501 1003
139.86501 -203.48399 1005
141.375 -204.086 1008
142.75 -204.485 1010
144.272 -205.086 1013
145.8 -205.688 1016
147.33501 -206.289 1019
148.87601 -206.89101 1022
150.57001 -207.694 1026
152.27299 -208.498 1030
61.166901 -206.132 1022
61.914001 -204.92 1016
62.834 -204.312 1013
63.747601 -203.70399 1010
64.718697 -203.298 1008
65.620102 -202.69 1005
66.581398 -202.284 1003
67.5382 -201.87801 1001
68.490601 -201.472 999
69.438698 -201.065 997
70.453003 -200.86099 996
71.393402 -200.45399 994
72.402199 -200.25 993
73.408798 -200.045 992
74.413101 -199.84 991
75.415298 -199.63499 990
76.337898 -199.229 988
77.334602 -199.024 987
78.328903 -198.819 986
79.320999 -198.614 985
80.310898 -198.409 984
81.215897 -198.002 982
82.200302 -197.797 981
83.267197 -197.79401 981
84.334198 -197.78999 981
85.314003 -197.58501 980
86.379799 -197.58099 980
87.3563 -197.37601 979
88.4207 -197.37199 979
89.485298 -197.369 979
90.549698 -197.36501 979
91.613998 -197.36099 979
92.678299 -197.35699 979
93.742599 -197.353 979
94.806801 -197.349 979
95.870796 -197.345 979
96.934898 -197.341 979
97.998901 -197.33701 979
98.961502 -197.131 978
100.024 -197.127 978
100.984 -196.92101 977
102.045 -196.91701 977
103.106 -196.91299 977
104.275 -197.11 978
105.337 -197.106 978
106.399 -197.101 978
107.461 -197.097 978
108.524 -197.092 978
109.698 -197.289 979
110.874 -197.48599 980
111.938 -197.48199 980
113.118 -197.67799 981
114.183 -197.674 981
115.365 -197.87 982
116.431 -197.866 982
117.617 -198.062 983
118.805 -198.259 984
119.872 -198.254 984
121.063 -198.45 985
122.256 -198.647 986
123.451 -198.843 987
124.522 -198.838 987
125.72 -199.034 988
126.92 -199.231 989
128.12199 -199.427 990
129.457 -199.825 992
130.66499 -200.021 993
132.007 -200.418 995
133.353 -200.81599 997
134.70399 -201.213 999
135.923 -201.409 1000
137.28101 -201.806 1002
138.644 -202.203 1004
140.149 -202.802 1007
141.521 -203.19901 1009
142.89799 -203.59599 1011
144.42 -204.194 1014
146.093 -204.994 1018
147.63 -205.592 1021
149.173 -206.19 1024
150.87 -206.989 1028
152.575 -207.78799 1032
60.990002 -204.42599 1019
61.855701 -203.621 1015
62.7127 -202.81599 1011
63.687199 -202.412 1009
64.657303 -202.008 1007
65.622902 -201.604 1005
66.517799 -200.99899 1002
67.541 -200.79601 1001
68.562103 -200.592 1000
69.5112 -200.188 998
70.4561 -199.784 996
71.396301 -199.38 994
72.405296 -199.17599 993
73.411797 -198.97301 992
74.341202 -198.56799 990
75.3423 -198.36501 989
76.341202 -198.161 988
77.337799 -197.957 987
78.332199 -197.75301 986
79.324303 -197.549 985
80.314301 -197.345 984
81.219299 -196.94099 982
82.203697 -196.737 981
83.270798 -196.733 981
84.3377 -196.73 981
85.404701 -196.726 981
86.3834 -196.522 980
87.449203 -196.51801 980
88.4245 -196.314 979
89.488998 -196.31 979
90.553497 -196.30701 979
91.617897 -196.30299 979
92.682098 -196.299 979
93.746498 -196.295 979
94.810699 -196.291 979
95.874802 -196.287 979
96.938904 -196.283 979
98.002899 -196.27901 979
99.066902 -196.27499 979
100.131 -196.271 979
101.091 -196.06599 978
102.154 -196.062 978
103.216 -196.058 978
104.279 -196.05299 978
105.341 -196.049 978
106.513 -196.245 979
107.576 -196.241 979
108.639 -196.23599 979
109.815 -196.43201 980
110.879 -196.427 980
112.057 -196.623 981
113.238 -196.819 982
114.304 -196.814 982
115.487 -197.00999 983
116.555 -197.005 983
117.741 -197.201 984
118.93 -197.396 985
119.999 -197.39101 985
121.068 -197.386 985
122.261 -197.582 986
123.456 -197.77699 987
124.653 -197.972 988
125.852 -198.168 989
127.054 -198.36301 990
128.257 -198.558 991
129.46201 -198.75301 992
130.80099 -199.14799 994
132.145 -199.54401 996
133.493 -199.939 998
134.84399 -200.334 1000
136.065 -200.52901 1001
137.424 -200.924 1003
138.925 -201.519 1006
140.29401 -201.914 1008
141.808 -202.50999 1011
143.186 -202.905 1013
144.569 -203.299 1015
146.243 -204.095 1019
147.925 -204.89 1023
149.47099 -205.485 1026
151.16901 -206.28 1030
152.728 -206.87399 1033
60.932701 -203.12399 1018
61.736401 -202.12399 1013
62.715302 -201.722 1011
63.626701 -201.121 1008
64.595802 -200.71899 1006
65.560402 -200.31799 1004
66.520599 -199.916 1002
67.543999 -199.713 1001
68.496399 -199.312 999
69.514198 -199.10899 998
70.459 -198.707 996
71.399399 -198.30499 994
72.408302 -198.103 993
73.415001 -197.89999 992
74.344299 -197.498 990
75.345497 -197.295 989
76.267097 -196.89301 987
77.262703 -196.69 986
78.335403 -196.687 986
79.327698 -196.48399 985
80.236 -196.082 983
81.222801 -195.879 982
82.207199 -195.67599 981
83.2743 -195.673 981
84.3414 -195.66901 981
85.408203 -195.666 981
86.475197 -195.662 981
87.452904 -195.459 980
88.4282 -195.256 979
89.584198 -195.452 980
90.649803 -195.448 980
91.715302 -195.444 980
92.7808 -195.44 980
93.846199 -195.436 980
94.9114 -195.43201 980
95.976799 -195.42799 980
97.042 -195.424 980
98.107002 -195.42 980
99.172203 -195.416 980
100.237 -195.412 980
101.199 -195.209 979
102.262 -195.20399 979
103.326 -195.2 979
104.39 -195.196 979
105.453 -195.19099 979
106.517 -195.187 979
107.69 -195.382 980
108.755 -195.377 980
109.931 -195.57201 981
110.997 -195.56799 981
112.176 -195.76199 982
113.242 -195.758 982
114.425 -195.953 983
115.61 -196.147 984
116.678 -196.142 984
117.866 -196.33701 985
118.935 -196.332 985
120.126 -196.526 986
121.196 -196.521 986
122.39 -196.716 987
123.586 -196.91 988
124.784 -197.104 989
125.985 -197.298 990
127.187 -197.493 991
128.392 -197.687 992
129.729 -198.08 994
130.938 -198.274 995
132.283 -198.66701 997
133.632 -199.06 999
134.85001 -199.254 1000
136.20599 -199.647 1002
137.56599 -200.03999 1004
139.069 -200.632 1007
140.439 -201.02499 1009
141.95399 -201.617 1012
143.47501 -202.209 1015
144.85899 -202.60201 1017
146.392 -203.19299 1020
148.076 -203.98399 1024
149.76801 -204.77499 1028
151.32201 -205.367 1031
60.061798 -202.82001 1022
60.815601 -201.627 1016
61.678101 -200.83 1012
62.655998 -200.431 1010
63.629398 -200.03101 1008
64.598503 -199.632 1006
65.563202 -199.23199 1004
66.523399 -198.832 1002
67.479301 -198.433 1000
68.499298 -198.231 999
69.517097 -198.03 998
70.461998 -197.63 996
71.402298 -197.23 994
72.4114 -197.02901 993
73.344002 -196.629 991
74.347504 -196.42799 990
75.2724 -196.028 988
76.270302 -195.826 987
77.2659 -195.62399 986
78.259399 -195.423 985
79.331001 -195.41901 985
80.239502 -195.019 983
81.226196 -194.81799 982
82.210602 -194.616 981
83.277802 -194.612 981
84.344803 -194.60899 981
85.411903 -194.605 981
86.478897 -194.60201 981
87.456497 -194.39999 980
88.522301 -194.396 980
89.587898 -194.392 980
90.653603 -194.38901 980
91.812698 -194.58299 981
92.879303 -194.57899 981
93.850098 -194.377 980
94.915497 -194.373 980
95.980698 -194.369 980
97.045998 -194.36501 980
98.111198 -194.36099 980
99.1763 -194.35699 980
100.241 -194.353 980
101.306 -194.349 980
102.267 -194.146 979
103.436 -194.34 980
104.501 -194.336 980
105.566 -194.332 980
106.63 -194.327 980
107.805 -194.521 981
108.87 -194.517 981
109.936 -194.51199 981
111.114 -194.70599 982
112.181 -194.701 982
113.362 -194.895 983
114.43 -194.89 983
115.615 -195.084 984
116.801 -195.27699 985
117.99 -195.47099 986
119.061 -195.466 986
120.253 -195.659 987
121.324 -195.65401 987
122.519 -195.84801 988
123.716 -196.041 989
124.916 -196.23399 990
126.117 -196.427 991
127.321 -196.62 992
128.526 -196.813 993
129.864 -197.20399 995
131.207 -197.595 997
132.42101 -197.78799 998
133.771 -198.179 1000
134.99001 -198.37199 1001
136.347 -198.763 1003
137.709 -199.15401 1005
139.213 -199.743 1008
140.584 -200.133 1010
142.10001 -200.722 1013
143.62199 -201.311 1016
145.14999 -201.899 1019
146.685 -202.48801 1022
148.226 -203.076 1025
149.92 -203.86301 1029
151.62199 -204.649 1033
59.181999 -202.507 1026
59.946701 -201.32001 1020
60.758202 -200.33 1015
61.680698 -199.73599 1012
62.5965 -199.14101 1009
63.632099 -198.94099 1008
64.601196 -198.54401 1006
65.565903 -198.146 1004
66.526199 -197.74899 1002
67.482201 -197.351 1000
68.502197 -197.151 999
69.519997 -196.951 998
70.464798 -196.55299 996
71.405403 -196.15601 994
72.341499 -195.758 992
73.347099 -195.55701 991
74.350502 -195.35699 990
75.351799 -195.157 989
76.273399 -194.759 987
77.269203 -194.558 986
78.262703 -194.358 985
79.253799 -194.157 984
80.242897 -193.95599 983
81.2295 -193.756 982
82.297897 -193.752 982
83.281197 -193.552 981
84.348396 -193.548 981
85.415398 -193.545 981
86.482399 -193.541 981
87.5494 -193.537 981
88.525902 -193.336 980
89.591698 -193.33299 980
90.749901 -193.526 981
91.816498 -193.52299 981
92.883202 -193.519 981
93.949699 -193.515 981
94.919403 -193.314 980
95.984802 -193.31 980
97.050102 -193.306 980
98.215302 -193.49899 981
99.281601 -193.495 981
100.348 -193.491 981
101.31 -193.289 980
102.375 -193.285 980
103.44 -193.28101 980
104.612 -193.474 981
105.678 -193.47 981
106.743 -193.465 981
107.809 -193.461 981
108.986 -193.65401 982
110.052 -193.649 982
111.119 -193.645 982
112.299 -193.83701 983
113.367 -193.83299 983
114.551 -194.02499 984
115.737 -194.218 985
116.925 -194.41 986
117.995 -194.405 986
119.186 -194.59801 987
120.38 -194.78999 988
121.575 -194.98199 989
122.772 -195.174 990
123.846 -195.16901 990
125.047 -195.36099 991
126.249 -195.55299 992
127.583 -195.942 994
128.78999 -196.134 995
130 -196.326 996
131.34399 -196.715 998
132.55901 -196.907 999
133.91 -197.29601 1001
135.13 -197.48801 1002
136.489 -197.87601 1004
137.989 -198.46201 1007
139.35699 -198.851 1009
140.868 -199.436 1012
142.246 -199.825 1014
143.769 -200.41 1017
145.298 -200.996 1020
146.978 -201.778 1024
148.521 -202.36301 1027
150.217 -203.145 1031
151.92101 -203.92799 1035
59.011398 -200.808 1023
59.831699 -199.82401 1018
60.700901 -199.036 1014
61.683201 -198.64101 1012
62.599098 -198.05 1009
63.571602 -197.655 1007
64.603897 -197.45599 1006
65.568703 -197.06 1004
66.595398 -196.86099 1003
67.552399 -196.466 1001
68.504997 -196.071 999
69.4533 -195.675 997
70.467796 -195.476 996
71.408401 -195.08099 994
72.344498 -194.685 992
73.350197 -194.48599 991
74.353699 -194.286 990
75.355003 -194.08701 989
76.353996 -193.888 988
77.3508 -193.688 987
78.2658 -193.293 985
79.257103 -193.093 984
80.246101 -192.89301 983
81.233002 -192.694 982
82.3013 -192.69 982
83.369598 -192.687 982
84.437798 -192.68401 982
85.506104 -192.67999 982
86.574203 -192.67599 982
87.553001 -192.47701 981
88.620003 -192.47301 981
89.686699 -192.46899 981
90.753601 -192.466 981
91.820396 -192.46201 981
92.981697 -192.65401 982
93.953598 -192.45399 981
95.020203 -192.45 981
96.086601 -192.446 981
97.153099 -192.442 981
98.219498 -192.438 981
99.285698 -192.43401 981
100.352 -192.42999 981
101.418 -192.42599 981
102.484 -192.422 981
103.55 -192.418 981
104.616 -192.41299 981
105.682 -192.409 981
106.748 -192.405 981
107.923 -192.59599 982
108.99 -192.592 982
110.169 -192.784 983
111.237 -192.77901 983
112.304 -192.77499 983
113.487 -192.966 984
114.555 -192.961 984
115.741 -193.153 985
116.929 -193.34399 986
118.12 -193.536 987
119.191 -193.53101 987
120.506 -193.918 989
121.703 -194.10899 990
122.901 -194.3 991
124.102 -194.491 992
125.304 -194.68201 993
126.509 -194.873 994
127.716 -195.064 995
128.925 -195.255 996
130.136 -195.446 997
131.349 -195.63699 998
132.69701 -196.024 1000
134.049 -196.41 1002
135.271 -196.601 1003
136.63 -196.987 1005
138.131 -197.57001 1008
139.638 -198.15199 1011
141.013 -198.539 1013
142.532 -199.121 1016
144.05701 -199.703 1019
145.589 -200.286 1022
147.127 -200.868 1025
148.672 -201.45 1028
150.51401 -202.424 1033
58.898499 -199.311 1021
59.775398 -198.528 1017
60.6436 -197.744 1013
61.5639 -197.15601 1010
62.6017 -196.95799 1009
63.5112 -196.37 1006
64.542397 -196.172 1005
65.571404 -195.974 1004
66.531799 -195.58099 1002
67.487801 -195.188 1000
68.439301 -194.795 998
69.4562 -194.597 997
70.400101 -194.20399 995
71.411301 -194.005 994
72.347504 -193.612 992
73.353203 -193.414 991
74.356796 -193.216 990
75.281898 -192.82201 988
76.2799 -192.62399 987
77.275597 -192.42599 986
78.269203 -192.22701 985
79.260399 -192.02901 984
80.3311 -192.026 984
81.319 -191.827 983
82.304703 -191.62801 982
83.373001 -191.625 982
84.441299 -191.62199 982
85.509598 -191.618 982
86.577698 -191.61501 982
87.645897 -191.61099 982
88.623596 -191.412 981
89.781898 -191.604 982
90.8498 -191.60001 982
91.917702 -191.59599 982
92.985603 -191.592 982
94.0532 -191.589 982
95.024101 -191.39 981
96.090599 -191.386 981
97.156998 -191.382 981
98.223396 -191.37801 981
99.289803 -191.37399 981
100.356 -191.369 981
101.422 -191.36501 981
102.488 -191.36099 981
103.554 -191.35699 981
104.727 -191.548 982
105.794 -191.543 982
106.861 -191.539 982
107.928 -191.535 982
109.105 -191.72501 983
110.173 -191.72099 983
111.354 -191.911 984
112.423 -191.907 984
113.492 -191.90199 984
114.676 -192.093 985
115.864 -192.283 986
117.053 -192.47301 987
118.124 -192.46899 987
119.317 -192.659 988
120.511 -192.849 989
121.708 -193.039 990
122.906 -193.229 991
124.107 -193.41901 992
125.309 -193.60899 993
126.514 -193.799 994
127.721 -193.989 995
129.06 -194.37399 997
130.272 -194.563 998
131.48599 -194.75301 999
132.83501 -195.138 1001
134.188 -195.522 1003
135.54601 -195.907 1005
136.908 -196.291 1007
138.274 -196.67599 1009
139.644 -197.06 1011
141.158 -197.63901 1014
142.67799 -198.218 1017
144.20399 -198.797 1020
145.737 -199.37601 1023
147.42 -200.14999 1027
148.967 -200.729 1030
58.785599 -197.81799 1019
59.6604 -197.039 1015
60.586201 -196.45399 1012
61.505501 -195.869 1009
62.480301 -195.478 1007
63.513802 -195.282 1006
64.480904 -194.89101 1004
65.508797 -194.694 1003
66.468102 -194.30299 1001
67.490501 -194.106 1000
68.4422 -193.715 998
69.459099 -193.51801 997
70.402901 -193.127 995
71.414299 -192.92999 994
72.350403 -192.539 992
73.3563 -192.342 991
74.284698 -191.951 989
75.285004 -191.75301 988
76.282997 -191.556 987
77.278801 -191.35899 986
78.272301 -191.162 985
79.263702 -190.964 984
80.334396 -190.961 984
81.322403 -190.76401 983
82.391899 -190.75999 983
83.461403 -190.757 983
84.5308 -190.75301 983
85.600197 -190.75 983
86.669502 -190.746 983
87.649498 -190.549 982
88.717598 -190.545 982
89.785599 -190.54201 982
90.8536 -190.53799 982
91.921501 -190.534 982
92.989304 -190.53 982
94.057098 -190.526 982
95.124901 -190.52299 982
96.192497 -190.519 982
97.260101 -190.515 982
98.327499 -190.511 982
99.394997 -190.507 982
100.462 -190.50301 982
101.53 -190.49899 982
102.597 -190.494 982
103.664 -190.49001 982
104.731 -190.48599 982
105.906 -190.67599 983
106.974 -190.67101 983
108.042 -190.66701 983
109.11 -190.66299 983
110.29 -190.85201 984
111.359 -190.84801 984
112.542 -191.037 985
113.611 -191.032 985
114.798 -191.222 986
115.986 -191.411 987
117.176 -191.60001 988
118.249 -191.59599 988
119.321 -191.591 988
120.516 -191.78 989
121.712 -191.96899 990
123.035 -192.35201 992
124.237 -192.541 993
125.441 -192.73 994
126.647 -192.91901 995
127.855 -193.10699 996
129.065 -193.29601 997
130.407 -193.679 999
131.623 -193.867 1000
132.97301 -194.25 1002
134.327 -194.632 1004
135.686 -195.01401 1006
137.049 -195.397 1008
138.416 -195.77901 1010
139.92599 -196.355 1013
141.442 -196.931 1016
142.964 -197.507 1019
144.493 -198.08299 1022
146.028 -198.658 1025
147.713 -199.42799 1029
149.26199 -200.00301 1032
57.9044 -197.49001 1023
58.6726 -196.32899 1017
59.604 -195.748 1014
60.588699 -195.35899 1012
61.508099 -194.77699 1009
62.482899 -194.38901 1007
63.4533 -194 1005
64.483498 -193.80499 1004
65.511497 -193.60899 1003
66.470901 -193.22 1001
67.425797 -192.83099 999
68.445 -192.63499 998
69.392197 -192.24699 996
70.405899 -192.05099 995
71.345497 -191.662 993
72.3535 -191.466 992
73.3592 -191.27 991
74.287804 -190.881 989
75.2118 -190.492 987
76.286201 -190.48801 987
77.281898 -190.29201 986
78.355103 -190.289 986
79.347504 -190.093 985
80.337799 -189.897 984
81.408401 -189.89301 984
82.395302 -189.69701 983
83.464798 -189.694 983
84.534302 -189.69 983
85.6036 -189.687 983
86.672997 -189.683 983
87.742401 -189.67999 983
88.721199 -189.483 982
89.789299 -189.479 982
90.8573 -189.476 982
91.925201 -189.472 982
92.993202 -189.468 982
94.060898 -189.464 982
95.1287 -189.461 982
96.196404 -189.457 982
97.264 -189.453 982
98.331596 -189.44901 982
99.399002 -189.44501 982
100.466 -189.44099 982
101.534 -189.437 982
102.601 -189.43201 982
103.668 -189.42799 982
104.842 -189.617 983
105.91 -189.61301 983
107.087 -189.80099 984
108.156 -189.797 984
109.225 -189.79201 984
110.294 -189.78799 984
111.476 -189.976 985
112.546 -189.972 985
113.731 -190.16 986
114.802 -190.15601 986
115.99 -190.34399 987
117.299 -190.72501 989
118.373 -190.72 989
119.447 -190.715 989
120.643 -190.903 990
121.84 -191.091 991
123.164 -191.472 993
124.367 -191.66 994
125.572 -191.84801 995
126.779 -192.036 996
127.988 -192.22301 997
129.32899 -192.604 999
130.543 -192.79201 1000
131.89101 -193.172 1002
133.244 -193.552 1004
134.467 -193.74001 1005
135.826 -194.12 1007
137.19 -194.5 1009
138.696 -195.073 1012
140.069 -195.453 1014
141.586 -196.026 1017
143.11 -196.59801 1020
144.78101 -197.364 1024
146.319 -197.936 1027
148.006 -198.701 1031
56.7924 -196.38499 1023
57.680401 -195.61501 1019
58.617401 -195.037 1016
59.547699 -194.45799 1013
60.4715 -193.88 1010
61.510601 -193.686 1009
62.485401 -193.299 1007
63.455799 -192.91299 1005
64.421997 -192.526 1003
65.448898 -192.332 1002
66.473602 -192.13699 1001
67.428596 -191.75 999
68.4478 -191.55499 998
69.395103 -191.16901 996
70.408798 -190.974 995
71.348297 -190.58701 993
72.356499 -190.392 992
73.362297 -190.19701 991
74.290802 -189.811 989
75.214996 -189.424 987
76.2892 -189.42101 987
77.285103 -189.226 986
78.278702 -189.03 985
79.3508 -189.02699 985
80.341003 -188.832 984
81.411797 -188.82899 984
82.482399 -188.825 984
83.468201 -188.63 983
84.537804 -188.627 983
85.607201 -188.623 983
86.676598 -188.62 983
87.745903 -188.616 983
88.724899 -188.42101 982
89.792999 -188.41701 982
90.861 -188.41299 982
92.022499 -188.60201 983
93.091599 -188.59801 983
94.160599 -188.59399 983
95.1325 -188.39799 982
96.200302 -188.394 982
97.267998 -188.39101 982
98.335503 -188.38699 982
99.403099 -188.383 982
100.573 -188.57001 983
101.641 -188.56599 983
102.71 -188.562 983
103.778 -188.558 983
104.846 -188.554 983
106.022 -188.741 984
107.092 -188.737 984
108.271 -188.924 985
109.341 -188.92 985
110.411 -188.916 985
111.481 -188.911 985
112.665 -189.099 986
113.736 -189.09399 986
114.923 -189.28101 987
116.113 -189.468 988
117.304 -189.655 989
118.498 -189.843 990
119.573 -189.838 990
120.769 -190.02499 991
121.968 -190.21201 992
123.293 -190.59 994
124.497 -190.77699 995
125.829 -191.15601 997
127.039 -191.342 998
128.25 -191.52901 999
129.463 -191.716 1000
130.80901 -192.09399 1002
132.028 -192.28 1003
133.382 -192.659 1005
134.74001 -193.037 1007
135.967 -193.22301 1008
137.332 -193.601 1010
138.838 -194.17101 1013
140.213 -194.548 1015
141.87 -195.31 1019
143.396 -195.879 1022
144.92799 -196.448 1025
146.60899 -197.209 1029
148.299 -197.97 1033
56.6838 -194.896 1021
57.569599 -194.13 1017
58.504299 -193.55499 1014
59.491402 -193.17101 1012
60.473999 -192.787 1010
61.452099 -192.403 1008
62.4259 -192.01801 1006
63.395302 -191.634 1004
64.424599 -191.44099 1003
65.386299 -191.056 1001
66.476303 -191.054 1001
67.431396 -190.66901 999
68.382004 -190.285 997
69.398003 -190.091 996
70.411598 -189.897 995
71.351303 -189.513 993
72.359398 -189.319 992
73.291298 -188.93401 990
74.2938 -188.74001 989
75.218002 -188.356 987
76.215103 -188.162 986
77.2882 -188.159 986
78.281998 -187.965 985
79.353996 -187.961 985
80.344299 -187.767 984
81.415001 -187.76401 984
82.485901 -187.761 984
83.556602 -187.757 984
84.627197 -187.754 984
85.610703 -187.56 983
86.680099 -187.556 983
87.749496 -187.55299 983
88.818703 -187.549 983
89.8881 -187.545 983
90.957298 -187.54201 983
92.026299 -187.53799 983
93.095398 -187.534 983
94.164299 -187.53101 983
95.233299 -187.52699 983
96.204102 -187.332 982
97.271896 -187.328 982
98.3396 -187.32401 982
99.508301 -187.511 983
100.577 -187.507 983
101.645 -187.50301 983
102.714 -187.49899 983
103.888 -187.685 984
104.957 -187.681 984
106.027 -187.677 984
107.096 -187.673 984
108.275 -187.85899 985
109.456 -188.045 986
110.527 -188.041 986
111.598 -188.037 986
112.67 -188.032 986
113.856 -188.218 987
115.044 -188.40401 988
116.235 -188.591 989
117.427 -188.77699 990
118.502 -188.772 990
119.698 -188.95799 991
120.896 -189.144 992
122.096 -189.33 993
123.422 -189.70599 995
124.627 -189.892 996
125.961 -190.26801 998
127.171 -190.45399 999
128.383 -190.63901 1000
129.728 -191.01601 1002
130.94501 -191.201 1003
132.297 -191.577 1005
133.52 -191.763 1006
134.879 -192.13901 1008
136.242 -192.51401 1010
137.60899 -192.89 1012
138.981 -193.26601 1014
140.495 -193.832 1017
142.015 -194.399 1020
143.68201 -195.155 1024
145.217 -195.722 1027
146.758 -196.28799 1030
56.575001 -193.412 1019
57.458698 -192.64999 1015
58.4491 -192.26801 1013
59.435001 -191.886 1011
60.4165 -191.504 1009
61.3937 -191.12199 1007
62.428501 -190.92999 1006
63.3979 -190.547 1004
64.3629 -190.16499 1002
65.388901 -189.97301 1001
66.412598 -189.78 1000
67.434196 -189.588 999
68.384804 -189.20599 997
69.400803 -189.013 996
70.414497 -188.82001 995
71.354103 -188.438 993
72.362396 -188.245 992
73.294197 -187.86301 990
74.296898 -187.67 989
75.2211 -187.28799 987
76.295502 -187.284 987
77.291397 -187.092 986
78.3647 -187.088 986
79.357201 -186.895 985
80.4291 -186.892 985
81.501198 -186.88901 985
82.572998 -186.886 985
83.559898 -186.69299 984
84.630699 -186.689 984
85.701202 -186.686 984
86.771797 -186.68201 984
87.752998 -186.489 983
88.822403 -186.485 983
89.891701 -186.48199 983
90.960899 -186.478 983
92.029999 -186.47501 983
93.099098 -186.47099 983
94.168198 -186.467 983
95.237099 -186.463 983
96.306099 -186.459 983
97.275902 -186.26601 982
98.343498 -186.26199 982
99.512398 -186.448 983
100.581 -186.444 983
101.753 -186.629 984
102.823 -186.625 984
103.892 -186.621 984
105.068 -186.806 985
106.139 -186.802 985
107.209 -186.798 985
108.279 -186.79401 985
109.46 -186.979 986
110.644 -187.164 987
111.716 -187.16 987
112.788 -187.155 987
113.976 -187.34 988
115.165 -187.52499 989
116.357 -187.711 990
117.551 -187.895 991
118.627 -187.89101 991
119.824 -188.076 992
121.023 -188.261 993
122.224 -188.44501 994
123.551 -188.82001 996
124.757 -189.004 997
125.965 -189.189 998
127.303 -189.563 1000
128.517 -189.748 1001
129.862 -190.12199 1003
131.08099 -190.306 1004
132.43401 -190.67999 1006
133.78999 -191.054 1008
135.01801 -191.23801 1009
136.517 -191.80099 1012
137.88699 -192.175 1014
139.25999 -192.549 1016
140.63901 -192.922 1018
142.299 -193.675 1022
143.96899 -194.427 1026
145.505 -194.99001 1029
147.048 -195.55299 1032
54.836899 -194.011 1028
55.684799 -193.06599 1023
56.466301 -191.931 1017
57.460999 -191.55099 1015
58.3937 -190.983 1012
59.378601 -190.603 1010
60.3591 -190.22301 1008
61.396198 -190.032 1007
62.368999 -189.65199 1005
63.337399 -189.272 1003
64.3013 -188.892 1001
65.326202 -188.701 1000
66.3489 -188.509 999
67.3694 -188.31799 998
68.319 -187.938 996
69.3339 -187.746 995
70.346603 -187.55499 994
71.357002 -187.36301 993
72.292397 -186.983 991
73.297203 -186.791 990
74.299896 -186.60001 989
75.3004 -186.408 988
76.2985 -186.216 987
77.373001 -186.213 987
78.367798 -186.021 986
79.441002 -186.01801 986
80.514099 -186.015 986
81.587196 -186.01199 986
82.660202 -186.008 986
83.6483 -185.81599 985
84.720001 -185.813 985
85.791801 -185.80901 985
86.863403 -185.806 985
87.845901 -185.614 984
88.916298 -185.61 984
89.986702 -185.60699 984
91.056999 -185.603 984
92.033798 -185.411 983
93.102898 -185.407 983
94.171898 -185.403 983
95.240997 -185.39999 983
96.309998 -185.396 983
97.378799 -185.392 983
98.447601 -185.388 983
99.516296 -185.384 983
100.687 -185.569 984
101.757 -185.565 984
102.827 -185.56 984
104.002 -185.745 985
105.072 -185.741 985
106.143 -185.737 985
107.213 -185.73199 985
108.394 -185.91701 986
109.465 -185.912 986
110.648 -186.09599 987
111.834 -186.28101 988
112.907 -186.276 988
113.98 -186.272 988
115.286 -186.644 990
116.362 -186.64 990
117.555 -186.82401 991
118.751 -187.007 992
119.828 -187.00301 992
121.149 -187.375 994
122.351 -187.55901 995
123.68 -187.931 997
124.887 -188.114 998
126.097 -188.298 999
127.435 -188.67 1001
128.64999 -188.853 1002
129.99699 -189.22501 1004
131.217 -189.409 1005
132.57001 -189.78101 1007
133.92799 -190.15199 1009
135.157 -190.33501 1010
136.657 -190.896 1013
138.028 -191.267 1015
139.403 -191.63901 1017
140.92 -192.198 1020
142.58299 -192.94701 1024
144.11501 -193.506 1027
145.79401 -194.254 1031
54.625801 -192.14799 1024
55.5238 -191.395 1020
56.412998 -190.642 1016
57.350201 -190.077 1013
58.338402 -189.69901 1011
59.322201 -189.32201 1009
60.361599 -189.132 1008
61.3377 -188.754 1006
62.309399 -188.37601 1004
63.276798 -187.998 1002
64.303902 -187.808 1001
65.263603 -187.42999 999
66.285103 -187.24001 998
67.304604 -187.05 997
68.3218 -186.85899 996
69.266998 -186.481 994
70.278603 -186.291 993
71.288101 -186.101 992
72.295197 -185.91 991
73.300201 -185.72 990
74.302902 -185.52901 989
75.303299 -185.338 988
76.301697 -185.14799 987
77.375999 -185.145 987
78.4505 -185.142 987
79.444199 -184.951 986
80.517403 -184.948 986
81.590401 -184.944 986
82.663597 -184.94099 986
83.736504 -184.938 986
84.723503 -184.74699 985
85.795197 -184.743 985
86.866997 -184.74001 985
87.938599 -184.73599 985
88.919899 -184.545 984
89.990303 -184.54201 984
91.060699 -184.53799 984
92.131104 -184.534 984
93.106598 -184.343 983
94.175797 -184.34 983
95.341599 -184.52299 984
96.411697 -184.519 984
97.481796 -184.51601 984
98.551598 -184.51199 984
99.621597 -184.508 984
100.691 -184.504 984
101.864 -184.687 985
102.935 -184.683 985
104.006 -184.679 985
105.183 -184.862 986
106.255 -184.858 986
107.326 -184.854 986
108.398 -184.85001 986
109.58 -185.033 987
110.653 -185.02901 987
111.838 -185.21201 988
113.026 -185.395 989
114.1 -185.39 989
115.291 -185.573 990
116.484 -185.756 991
117.679 -185.939 992
118.756 -185.93401 992
119.954 -186.117 993
121.154 -186.3 994
122.356 -186.48199 995
123.685 -186.85201 997
125.017 -187.222 999
126.354 -187.592 1001
127.568 -187.77499 1002
128.784 -187.957 1003
130.131 -188.327 1005
131.35201 -188.509 1006
132.707 -188.879 1008
134.06599 -189.248 1010
135.42999 -189.618 1012
136.797 -189.987 1014
138.30499 -190.54401 1017
139.68201 -190.91299 1019
141.064 -191.283 1021
142.728 -192.02699 1025
144.401 -192.77 1029
53.773399 -191.974 1029
54.521301 -190.666 1022
55.4716 -190.104 1019
56.359798 -189.356 1015
57.352402 -188.98 1013
58.340698 -188.605 1011
59.3246 -188.229 1009
60.3041 -187.854 1007
61.279202 -187.478 1005
62.249901 -187.103 1003
63.279301 -186.914 1002
64.242203 -186.53799 1000
65.200798 -186.162 998
66.221397 -185.97301 997
67.239799 -185.784 996
68.255898 -185.595 995
69.269798 -185.405 994
70.281502 -185.216 993
71.219002 -184.84 991
72.298203 -184.83701 991
73.303101 -184.64799 990
74.305901 -184.45799 989
75.306396 -184.269 988
76.304604 -184.07899 987
77.379204 -184.076 987
78.453499 -184.073 987
79.528 -184.07001 987
80.602203 -184.067 987
81.676498 -184.063 987
82.750603 -184.06 987
83.739899 -183.87 986
84.812798 -183.867 986
85.885803 -183.864 986
86.958603 -183.86 986
87.9422 -183.67 985
89.013702 -183.66701 985
89.993896 -183.47701 984
91.064301 -183.47301 984
92.134697 -183.46899 984
93.205101 -183.466 984
94.2752 -183.46201 984
95.345497 -183.45799 984
96.513496 -183.64101 985
97.584702 -183.63699 985
98.6558 -183.633 985
99.7267 -183.629 985
100.798 -183.625 985
101.869 -183.621 985
103.044 -183.804 986
104.116 -183.8 986
105.187 -183.795 986
106.367 -183.978 987
107.439 -183.97301 987
108.512 -183.96899 987
109.696 -184.151 988
110.769 -184.147 988
111.956 -184.32899 989
113.03 -184.325 989
114.22 -184.507 990
115.412 -184.688 991
116.606 -184.87 992
117.802 -185.052 993
119 -185.23399 994
120.079 -185.229 994
121.402 -185.597 996
122.607 -185.77901 997
123.813 -185.96001 998
125.147 -186.328 1000
126.485 -186.696 1002
127.7 -186.877 1003
128.91701 -187.058 1004
130.26601 -187.42599 1006
131.48801 -187.60699 1007
132.84399 -187.97501 1009
134.20399 -188.342 1011
135.569 -188.71001 1013
137.07201 -189.263 1016
138.44701 -189.631 1018
139.825 -189.998 1020
141.34599 -190.55099 1023
142.873 -191.104 1026
144.547 -191.84399 1030
53.566502 -190.118 1025
54.416698 -189.188 1020
55.364899 -188.63 1017
56.306499 -188.071 1014
57.2981 -187.698 1012
58.285301 -187.32401 1010
59.2682 -186.951 1008
60.246601 -186.578 1006
61.2206 -186.20399 1004
62.2523 -186.017 1003
63.2187 -185.64301 1001
64.180603 -185.27 999
65.2034 -185.082 998
66.224098 -184.894 997
67.174896 -184.52 995
68.190002 -184.332 994
69.202904 -184.144 993
70.213501 -183.955 992
71.221901 -183.767 991
72.227997 -183.57899 990
73.306099 -183.576 990
74.3088 -183.388 989
75.309502 -183.19901 988
76.385101 -183.196 988
77.382301 -183.008 987
78.536201 -183.19 988
79.611603 -183.187 988
80.687103 -183.18401 988
81.679703 -182.995 987
82.753998 -182.992 987
83.828201 -182.98801 987
84.8162 -182.8 986
85.889099 -182.79601 986
86.873901 -182.60699 985
87.945602 -182.604 985
89.017303 -182.60001 985
89.997398 -182.412 984
91.068001 -182.408 984
92.138298 -182.40401 984
93.208702 -182.401 984
94.278999 -182.397 984
95.349197 -182.39301 984
96.517403 -182.575 985
97.588501 -182.571 985
98.659599 -182.567 985
99.831902 -182.74899 986
100.904 -182.745 986
101.976 -182.741 986
103.048 -182.737 986
104.225 -182.918 987
105.298 -182.914 987
106.371 -182.91 987
107.552 -183.091 988
108.626 -183.086 988
109.811 -183.267 989
110.886 -183.263 989
112.073 -183.444 990
113.149 -183.44 990
114.34 -183.621 991
115.533 -183.80099 992
116.61 -183.797 992
117.925 -184.16299 994
119.124 -184.34399 995
120.326 -184.524 996
121.529 -184.705 997
122.735 -184.88499 998
124.066 -185.25101 1000
125.277 -185.431 1001
126.616 -185.797 1003
127.832 -185.97701 1004
129.179 -186.343 1006
130.39999 -186.52299 1007
131.62399 -186.703 1008
132.981 -187.06799 1010
134.342 -187.43401 1012
135.70799 -187.799 1014
137.213 -188.349 1017
138.724 -188.89999 1020
140.104 -189.265 1022
141.489 -189.63 1024
143.157 -190.36501 1028
53.4641 -188.63901 1023
54.365501 -187.899 1019
55.312698 -187.34399 1016
56.3088 -186.97301 1014
57.243801 -186.41701 1011
58.23 -186.04601 1009
59.2118 -185.675 1007
60.249001 -185.48801 1006
61.223099 -185.117 1004
62.192799 -184.746 1002
63.158001 -184.375 1000
64.183197 -184.188 999
65.2061 -184.00101 998
66.2267 -183.814 997
67.177597 -183.442 995
68.192703 -183.255 994
69.136002 -182.884 992
70.1455 -182.69701 991
71.2248 -182.694 991
72.230904 -182.507 990
73.308899 -182.504 990
74.311798 -182.317 989
75.312401 -182.129 988
76.3881 -182.12601 988
77.463699 -182.123 988
78.539398 -182.12 988
79.614899 -182.117 988
80.6903 -182.114 988
81.765701 -182.11099 988
82.841202 -182.10699 988
83.831497 -181.92 987
84.905602 -181.916 987
85.892601 -181.729 986
86.877403 -181.541 985
87.949097 -181.53799 985
89.020897 -181.534 985
90.092499 -181.53101 985
91.1642 -181.52699 985
92.235603 -181.52299 985
93.307198 -181.52 985
94.378502 -181.51601 985
95.449898 -181.51199 985
96.521103 -181.509 985
97.691498 -181.689 986
98.763702 -181.685 986
99.8358 -181.681 986
101.01 -181.862 987
102.083 -181.858 987
103.156 -181.854 987
104.229 -181.849 987
105.409 -182.03 988
106.483 -182.02499 988
107.557 -182.021 988
108.74 -182.201 989
109.926 -182.381 990
111.002 -182.377 990
112.191 -182.55701 991
113.268 -182.552 991
114.46 -182.73199 992
115.537 -182.728 992
116.732 -182.908 993
118.048 -183.271 995
119.249 -183.451 996
120.451 -183.63 997
121.656 -183.81 998
122.862 -183.989 999
124.195 -184.353 1001
125.407 -184.532 1002
126.747 -184.896 1004
127.965 -185.075 1005
129.312 -185.438 1007
130.535 -185.618 1008
131.89 -185.981 1010
133.24899 -186.34399 1012
134.61301 -186.707 1014
135.981 -187.07001 1016
137.353 -187.433 1018
138.86501 -187.98 1021
140.384 -188.52699 1024
141.771 -188.89 1026
143.44099 -189.621 1030
52.504902 -188.08299 1026
53.361698 -187.164 1021
54.261002 -186.429 1017
55.260502 -186.06 1015
56.255402 -185.69099 1013
57.189499 -185.13901 1010
58.174599 -184.77 1008
59.1553 -184.401 1006
60.191601 -184.215 1005
61.1646 -183.84599 1003
62.133202 -183.47701 1001
63.160599 -183.29201 1000
64.185699 -183.106 999
65.143303 -182.737 997
66.162903 -182.55099 996
67.180298 -182.36501 995
68.1269 -181.996 993
69.138702 -181.81 992
70.1483 -181.62399 991
71.227501 -181.621 991
72.233803 -181.435 990
73.237801 -181.24899 989
74.314796 -181.246 989
75.391602 -181.243 989
76.468399 -181.24001 989
77.545197 -181.237 989
78.621902 -181.23399 989
79.698601 -181.23 989
80.7752 -181.22701 989
81.851799 -181.224 989
82.844299 -181.03799 988
83.9198 -181.034 988
84.908997 -180.84801 987
85.896004 -180.661 986
86.968903 -180.658 986
88.041901 -180.65401 986
89.1147 -180.651 986
90.096001 -180.464 985
91.167702 -180.46001 985
92.333 -180.64 986
93.405502 -180.636 986
94.478104 -180.633 986
95.550499 -180.629 986
96.622902 -180.625 986
97.695297 -180.621 986
98.767502 -180.618 986
99.941002 -180.797 987
101.014 -180.793 987
102.087 -180.789 987
103.16 -180.785 987
104.339 -180.964 988
105.413 -180.96001 988
106.595 -181.13901 989
107.67 -181.13499 989
108.855 -181.314 990
110.042 -181.493 991
111.118 -181.489 991
112.308 -181.66701 992
113.386 -181.66299 992
114.58 -181.842 993
115.658 -181.83701 993
116.854 -182.01601 994
118.053 -182.194 995
119.373 -182.556 997
120.577 -182.735 998
121.782 -182.91299 999
122.99 -183.091 1000
124.2 -183.27 1001
125.537 -183.631 1003
126.879 -183.992 1005
128.097 -184.17101 1006
129.446 -184.532 1008
130.66901 -184.71001 1009
132.02499 -185.071 1011
133.386 -185.43201 1013
134.75101 -185.793 1015
136.12 -186.15401 1017
137.62801 -186.698 1020
139.007 -187.05901 1022
140.526 -187.603 1025
142.05299 -188.146 1028
51.538898 -187.52 1029
52.404499 -186.60699 1024
53.2593 -185.694 1019
54.209801 -185.145 1016
55.208199 -184.778 1014
56.202202 -184.412 1012
57.1917 -184.045 1010
58.119202 -183.496 1007
59.0989 -183.129 1005
60.133999 -182.94501 1004
61.105999 -182.578 1002
62.1357 -182.39301 1001
63.099899 -182.026 999
64.124001 -181.841 998
65.145798 -181.657 997
66.165497 -181.472 996
67.115402 -181.105 994
68.129601 -180.92 993
69.141403 -180.735 992
70.1511 -180.55 991
71.158501 -180.36501 990
72.236603 -180.362 990
73.2407 -180.177 989
74.317596 -180.174 989
75.394699 -180.17101 989
76.471497 -180.168 989
77.548203 -180.16499 989
78.625099 -180.162 989
79.701698 -180.159 989
80.778397 -180.15601 989
81.854897 -180.153 989
82.847702 -179.968 988
83.922997 -179.964 988
84.998398 -179.961 988
85.986397 -179.77499 987
86.972397 -179.59 986
88.045303 -179.58701 986
89.118301 -179.58299 986
90.191101 -179.58 986
91.263901 -179.576 986
92.336502 -179.57201 986
93.409203 -179.569 986
94.481697 -179.565 986
95.651199 -179.744 987
96.724701 -179.74001 987
97.798203 -179.73599 987
98.871597 -179.73199 987
99.944901 -179.728 987
101.018 -179.724 987
102.195 -179.903 988
103.269 -179.899 988
104.343 -179.895 988
105.524 -180.073 989
106.599 -180.06799 989
107.783 -180.246 990
108.859 -180.242 990
110.046 -180.42 991
111.235 -180.59801 992
112.426 -180.776 993
113.505 -180.771 993
114.699 -180.94901 994
115.779 -180.944 994
116.977 -181.12199 995
118.176 -181.299 996
119.497 -181.659 998
120.702 -181.836 999
121.909 -182.01401 1000
123.241 -182.373 1002
124.453 -182.55 1003
125.667 -182.728 1004
127.01 -183.08701 1006
128.229 -183.26401 1007
129.57899 -183.623 1009
130.804 -183.8 1010
132.161 -184.159 1012
133.52299 -184.51801 1014
134.88901 -184.877 1016
136.259 -185.23599 1018
137.76801 -185.776 1021
139.284 -186.317 1024
140.806 -186.85699 1027
51.340599 -185.681 1025
52.253101 -184.95399 1021
53.209202 -184.408 1018
54.1586 -183.86301 1015
55.155899 -183.498 1013
56.1488 -183.134 1011
57.137402 -182.769 1009
58.121399 -182.405 1007
59.0424 -181.85899 1004
60.0765 -181.67599 1003
61.108398 -181.492 1002
62.076 -181.12801 1000
63.102402 -180.944 999
64.126503 -180.75999 998
65.083099 -180.396 996
66.1017 -180.21201 995
67.118103 -180.028 994
68.132202 -179.84399 993
69.144203 -179.661 992
70.153801 -179.47701 991
71.2332 -179.474 991
72.239502 -179.28999 990
73.317703 -179.287 990
74.395798 -179.284 990
75.473801 -179.28101 990
76.551804 -179.278 990
77.6297 -179.27499 990
78.707703 -179.272 990
79.7854 -179.269 990
80.863197 -179.26601 990
81.8582 -179.082 989
82.9347 -179.07899 989
84.011299 -179.075 989
85.0877 -179.07201 989
86.077003 -178.888 988
87.063904 -178.703 987
88.1381 -178.7 987
89.212097 -178.696 987
90.286102 -178.69299 987
91.359901 -178.689 987
92.4338 -178.686 987
93.5075 -178.68201 987
94.581299 -178.67799 987
95.6548 -178.675 987
96.8265 -178.85201 988
97.9011 -178.84801 988
98.975601 -178.84399 988
100.05 -178.841 988
101.124 -178.83701 988
102.199 -178.83299 988
103.378 -179.00999 989
104.453 -179.006 989
105.528 -179.002 989
106.711 -179.179 990
107.787 -179.175 990
108.973 -179.351 991
110.161 -179.528 992
111.351 -179.705 993
112.544 -179.882 994
113.624 -179.877 994
114.819 -180.054 995
115.9 -180.049 995
117.099 -180.226 996
118.299 -180.40199 997
119.622 -180.75999 999
120.827 -180.936 1000
122.035 -181.112 1001
123.369 -181.46899 1003
124.582 -181.646 1004
125.797 -181.82201 1005
127.014 -181.998 1006
128.36099 -182.355 1008
129.71201 -182.71201 1010
130.938 -182.888 1011
132.297 -183.245 1013
133.659 -183.601 1015
135.026 -183.95799 1017
136.39799 -184.315 1019
137.908 -184.85201 1022
139.425 -185.39 1025
141.08501 -186.108 1029
51.192299 -184.03 1022
52.101601 -183.30701 1018
53.106701 -182.94501 1016
54.107399 -182.58299 1014
55.1036 -182.22099 1012
56.095501 -181.858 1010
57.082901 -181.496 1008
58.066002 -181.134 1006
59.044701 -180.771 1004
60.0788 -180.589 1003
61.110802 -180.407 1002
62.078499 -180.04401 1000
63.104801 -179.862 999
64.064796 -179.49899 997
65.085602 -179.31599 996
66.104301 -179.134 995
67.120697 -178.951 994
68.134903 -178.769 993
69.146896 -178.586 992
70.227402 -178.58299 992
71.235901 -178.39999 991
72.3153 -178.39799 991
73.320503 -178.215 990
74.398697 -178.21201 990
75.476799 -178.209 990
76.554703 -178.20599 990
77.632797 -178.203 990
78.710701 -178.2 990
79.788498 -178.19701 990
80.866402 -178.194 990
81.944099 -178.19 990
82.938004 -178.007 989
84.014603 -178.004 989
85.091003 -178.00101 989
86.167397 -177.99699 989
87.155602 -177.814 988
88.230698 -177.811 988
89.215599 -177.627 987
90.289497 -177.62399 987
91.363503 -177.62 987
92.437302 -177.617 987
93.5112 -177.61301 987
94.5849 -177.60899 987
95.755501 -177.786 988
96.830299 -177.782 988
97.9048 -177.778 988
98.979401 -177.77499 988
100.155 -177.951 989
101.231 -177.94701 989
102.306 -177.94299 989
103.381 -177.939 989
104.562 -178.11501 990
105.639 -178.11099 990
106.715 -178.10699 990
107.9 -178.282 991
108.977 -178.278 991
110.165 -178.45399 992
111.356 -178.63 993
112.548 -178.80499 994
113.742 -178.981 995
114.824 -178.976 995
116.021 -179.15199 996
117.221 -179.327 997
118.422 -179.50301 998
119.626 -179.67799 999
120.953 -180.033 1001
122.162 -180.20799 1002
123.373 -180.384 1003
124.586 -180.55901 1004
125.802 -180.73399 1005
127.146 -181.089 1007
128.366 -181.26401 1008
129.717 -181.619 1010
131.073 -181.97301 1012
132.43201 -182.328 1014
133.79601 -182.683 1016
135.164 -183.037 1018
136.67101 -183.571 1021
138.183 -184.106 1024
139.702 -184.64 1027
50.2272 -183.461 1025
51.094101 -182.564 1020
52.001301 -181.84599 1016
53.0042 -181.48599 1014
54.002701 -181.12601 1012
55.0513 -180.94501 1011
56.042099 -180.58501 1009
57.028599 -180.22501 1007
58.068298 -180.04401 1006
59.047001 -179.683 1004
60.0812 -179.502 1003
61.0522 -179.142 1001
62.080898 -178.96001 1000
63.044102 -178.60001 998
64.0672 -178.41901 997
65.153503 -178.416 997
66.173302 -178.235 996
67.123299 -177.87399 994
68.137604 -177.69299 993
69.219299 -177.69 993
70.230202 -177.508 992
71.3106 -177.506 992
72.318199 -177.32401 991
73.397499 -177.321 991
74.4767 -177.31799 991
75.479698 -177.136 990
76.5578 -177.133 990
77.635696 -177.13 990
78.713799 -177.127 990
79.8722 -177.30299 991
80.951302 -177.3 991
81.947304 -177.118 990
83.025101 -177.11501 990
84.017799 -176.933 989
85.094299 -176.929 989
86.083603 -176.74699 988
87.158897 -176.744 988
88.2342 -176.74001 988
89.309303 -176.737 988
90.384499 -176.73399 988
91.459503 -176.73 988
92.534599 -176.72701 988
93.609497 -176.72301 988
94.684402 -176.71899 988
95.759102 -176.716 988
96.9319 -176.89101 989
98.007797 -176.88699 989
99.083397 -176.883 989
100.159 -176.879 989
101.337 -177.054 990
102.413 -177.05099 990
103.49 -177.047 990
104.566 -177.043 990
105.749 -177.217 991
106.827 -177.213 991
107.904 -177.209 991
109.091 -177.384 992
110.281 -177.55901 993
111.472 -177.733 994
112.552 -177.729 994
113.747 -177.903 995
114.943 -178.078 996
116.142 -178.252 997
117.343 -178.427 998
118.546 -178.601 999
119.751 -178.77499 1000
120.958 -178.94901 1001
122.289 -179.302 1003
123.501 -179.47701 1004
124.715 -179.651 1005
125.932 -179.825 1006
127.277 -180.177 1008
128.498 -180.351 1009
129.979 -180.883 1012
131.33701 -181.235 1014
132.56799 -181.409 1015
133.933 -181.76199 1017
135.435 -182.293 1020
136.81 -182.645 1022
138.45799 -183.355 1026
49.159698 -182.53 1026
50.0821 -181.81599 1022
50.995899 -181.103 1018
51.900902 -180.38901 1014
52.953999 -180.209 1013
53.9515 -179.851 1011
54.9445 -179.494 1009
55.9888 -179.314 1008
57.030701 -179.133 1007
58.012798 -178.77499 1005
58.990501 -178.41701 1003
60.023602 -178.237 1002
61.0546 -178.05701 1001
62.021198 -177.69901 999
63.0466 -177.519 998
64.069801 -177.338 997
65.090698 -177.158 996
66.175903 -177.155 996
67.193497 -176.97501 995
68.208801 -176.79401 994
69.221901 -176.614 993
70.303596 -176.61099 993
71.3134 -176.431 992
72.393898 -176.42799 992
73.474297 -176.425 992
74.554802 -176.422 992
75.5588 -176.241 991
76.6381 -176.23801 991
77.717201 -176.235 991
78.796204 -176.23199 991
79.875397 -176.229 991
80.9543 -176.226 991
82.033302 -176.22301 991
83.028198 -176.04201 990
84.106003 -176.039 990
85.097603 -175.858 989
86.174004 -175.855 989
87.1623 -175.673 988
88.237701 -175.67 988
89.312897 -175.66701 988
90.3881 -175.66299 988
91.463097 -175.66 988
92.538101 -175.65601 988
93.613098 -175.653 988
94.688103 -175.649 988
95.762901 -175.645 988
96.935699 -175.819 989
98.011398 -175.81599 989
99.087196 -175.812 989
100.264 -175.98599 990
101.341 -175.98199 990
102.521 -176.15601 991
103.598 -176.15199 991
104.676 -176.14799 991
105.86 -176.32201 992
106.939 -176.31799 992
108.017 -176.314 992
109.205 -176.487 993
110.396 -176.661 994
111.588 -176.834 995
112.67 -176.83 995
113.865 -177.004 996
115.063 -177.177 997
116.146 -177.173 997
117.347 -177.34599 998
118.55 -177.519 999
119.875 -177.87 1001
121.083 -178.043 1002
122.415 -178.394 1004
123.629 -178.567 1005
124.844 -178.74001 1006
126.062 -178.91299 1007
127.408 -179.26401 1009
128.758 -179.614 1011
130.112 -179.965 1013
131.47099 -180.315 1015
132.834 -180.666 1017
134.07001 -180.838 1018
135.573 -181.366 1021
137.082 -181.894 1024
138.733 -182.599 1028
49.017799 -180.88699 1023
49.937099 -180.17799 1019
50.897701 -179.646 1016
51.8517 -179.11301 1013
52.903801 -178.935 1012
53.9002 -178.57899 1010
54.946701 -178.39999 1009
55.935398 -178.04401 1007
56.976299 -177.86501 1006
57.957298 -177.509 1004
58.933899 -177.15401 1002
60.026001 -177.151 1002
60.995899 -176.795 1000
62.023602 -176.616 999
62.985901 -176.25999 997
64.072197 -176.258 997
65.093201 -176.078 996
66.178497 -176.076 996
67.195999 -175.897 995
68.211502 -175.717 994
69.294296 -175.715 994
70.306297 -175.535 993
71.388 -175.532 993
72.469704 -175.53 993
73.477203 -175.35001 992
74.557701 -175.347 992
75.638 -175.34399 992
76.7183 -175.341 992
77.798698 -175.338 992
78.799301 -175.159 991
79.878403 -175.15601 991
80.957397 -175.15199 991
82.036499 -175.149 991
83.115303 -175.146 991
84.1092 -174.966 990
85.186897 -174.963 990
86.177399 -174.783 989
87.253899 -174.78 989
88.330299 -174.776 989
89.406601 -174.77299 989
90.483002 -174.77 989
91.466698 -174.589 988
92.541702 -174.586 988
93.711403 -174.759 989
94.787498 -174.755 989
95.863503 -174.752 989
96.939301 -174.748 989
98.114304 -174.92101 990
99.191101 -174.91701 990
100.268 -174.914 990
101.447 -175.086 991
102.525 -175.08299 991
103.707 -175.255 992
104.786 -175.25101 992
105.971 -175.424 993
107.051 -175.42 993
108.13 -175.416 993
109.32 -175.588 994
110.4 -175.584 994
111.593 -175.757 995
112.787 -175.929 996
113.984 -176.10201 997
115.067 -176.097 997
116.267 -176.27 998
117.469 -176.442 999
118.673 -176.614 1000
119.999 -176.963 1002
121.208 -177.13499 1003
122.42 -177.30701 1004
123.756 -177.655 1006
124.973 -177.827 1007
126.192 -177.99899 1008
127.412 -178.17101 1009
128.763 -178.52 1011
130.246 -179.04401 1014
131.606 -179.39301 1016
133.10001 -179.918 1019
134.338 -180.089 1020
135.976 -180.78999 1024
137.489 -181.315 1027
139.14301 -182.01601 1031
48.0448 -180.30701 1026
48.8759 -179.25101 1020
49.841 -178.722 1017
50.849499 -178.369 1015
51.802601 -177.839 1012
52.8535 -177.662 1011
53.902302 -177.48399 1010
54.948799 -177.306 1009
55.9375 -176.953 1007
56.921902 -176.599 1005
57.901798 -176.245 1003
58.936199 -176.067 1002
59.9683 -175.88901 1001
60.998299 -175.711 1000
61.963902 -175.358 998
62.9883 -175.179 997
64.074699 -175.177 997
65.095703 -174.99899 996
66.181 -174.996 996
67.198601 -174.81799 995
68.2827 -174.81599 995
69.296997 -174.63699 994
70.379898 -174.634 994
71.4627 -174.632 994
