ply
format ascii 1.0
comment PCL generated
element vertex 1554
property float x
property float y
property float z
element camera 0
property float view_px
property float view_py
property float view_pz
property float x_axisx
property float x_axisy
property float x_axisz
property float y_axisx
property float y_axisy
property float y_axisz
property float z_axisx
property float z_axisy
property float z_axisz
property float focal
property float scalex
property float scaley
property float centerx
property float centery
property int viewportx
property int viewporty
property float k1
property float k2
end_header
7.3019924 94.621765 166.74994
8.6388111 97.729042 167.27646
9.8581638 99.811302 167.79373
11.205637 102.91895 168.32571
12.558481 106.02677 168.86046
14.169802 111.18571 169.4269
-62.717598 100.18254 129.57742
-61.945755 96.12487 130.1767
-61.128914 93.089729 130.74802
-60.317848 90.054398 131.31638
-59.51265 87.018845 131.8817
-58.656948 85.00576 132.42084
-57.805321 82.992523 132.95786
-56.957439 80.979164 133.49298
-56.054237 79.988419 134.00436
-55.153618 78.997849 134.5155
-54.254417 78.006966 135.02484
-53.419434 75.993164 135.55334
-52.588173 73.979225 136.07993
-51.696884 72.988075 136.58519
-50.807644 71.996849 137.08942
-49.920277 71.005562 137.59267
-49.035301 70.01445 138.09578
-48.152016 69.023026 138.59695
-47.270599 68.031525 139.09714
-46.39114 67.039963 139.59633
-45.513813 66.048332 140.09444
-44.638359 65.056633 140.59158
-43.692101 65.088081 141.07291
-42.746124 65.119514 141.55414
-41.874668 64.127678 142.04922
-40.929577 64.159088 142.52998
-40.061146 63.167149 143.02351
-39.117294 63.198513 143.50363
-38.172817 63.229633 143.98297
-37.22897 63.261002 144.4631
-36.365604 62.268883 144.95403
-35.422909 62.300209 145.43355
-34.480133 62.331539 145.91312
-33.536999 62.362617 146.39178
-32.594292 62.393936 146.87131
-31.736271 61.401375 147.35843
-30.795441 61.432632 147.83698
-29.766041 62.487656 148.30887
-28.823881 62.5187 148.78705
-27.881283 62.550018 149.26653
-26.938223 62.581093 149.74515
-25.99651 62.612385 150.22415
-25.053457 62.643456 150.70279
-24.111744 62.674747 151.18179
-23.074781 63.729755 151.65649
-22.131733 63.76083 152.13512
-21.188675 63.791901 152.61374
-20.246075 63.823223 153.09322
-19.204668 64.878387 153.57019
-18.260725 64.909492 154.04926
-17.216646 65.964752 154.5276
-16.171679 67.020035 155.00641
-15.124495 68.075668 155.48743
-14.177441 68.106613 155.96701
-13.127138 69.162086 156.44858
-12.075062 70.217613 156.93102
-11.126671 70.248871 157.41235
-10.071932 71.304497 157.89619
-9.1226482 71.335777 158.37799
-8.0643444 72.391525 158.86365
-7.004694 73.447052 159.34891
-5.9437313 74.502892 159.83591
-4.880085 75.558823 160.32431
-3.8151093 76.614525 160.81229
-2.7479095 77.670578 161.30249
-1.5641212 79.751083 161.79933
-0.49337196 80.807259 162.29138
0.69662857 82.887978 162.79141
1.8906384 84.969101 163.29457
3.0877666 87.050064 163.79825
4.408144 90.155975 164.31308
5.4944744 91.212418 164.81201
6.702692 93.294037 165.32251
7.9158344 95.375549 165.83441
9.2548847 98.482101 166.3588
10.600172 101.58887 166.88641
11.950785 104.69583 167.41675
13.307623 107.80299 167.95029
14.795717 111.93538 168.49905
16.420862 117.09293 169.06497
-63.00164 103.96497 128.03377
-62.276245 98.886574 128.66785
-61.507263 94.829872 129.26999
-60.692654 91.795456 129.84341
-59.88382 88.760834 130.41388
-59.025642 86.748627 130.95755
-58.22757 83.713638 131.52249
-57.319931 82.723305 132.03725
-56.47348 80.710693 132.57487
-55.570728 79.7202 133.08713
-54.670383 78.729889 133.59923
-53.83326 76.71669 134.13098
-52.937355 75.72596 134.63972
-52.107086 73.712524 135.16797
-51.216248 72.721619 135.6741
-50.327728 71.730904 136.18013
-49.440895 70.739861 136.68419
-48.555916 69.748749 137.1873
-47.672913 68.757576 137.68939
-46.723198 68.789413 138.17363
-45.843204 67.798134 138.67418
-44.965172 66.806786 139.17372
-44.089279 65.815369 139.67218
-43.21524 64.823891 140.16968
-42.269089 64.855331 140.65099
-41.323021 64.886772 141.13223
-40.45298 63.895157 141.62769
-39.507977 63.926559 142.1084
-38.640976 62.934837 142.60229
-37.697037 62.966202 143.08246
-36.753098 62.997574 143.56262
-35.80925 63.028938 144.04272
-34.946861 62.036789 144.53314
-34.004173 62.068115 145.01268
-33.061302 62.099445 145.49229
-32.11879 62.130768 145.97173
-31.175911 62.161831 146.45026
-30.233311 62.193153 146.92972
-29.29071 62.224476 147.40921
-28.259521 63.279022 147.87985
-27.316032 63.310379 148.35979
-26.372084 63.341476 148.83887
-25.428595 63.372833 149.31879
-24.48554 63.4039 149.79739
-23.541607 63.435005 150.27649
-22.598991 63.466328 150.75595
-21.559807 64.521149 151.23071
-20.61587 64.552254 151.70979
-19.671928 64.583359 152.18887
-18.727545 64.614738 152.66925
-17.684799 65.669685 153.14583
-16.739079 65.700851 153.62582
-15.693665 66.75589 154.10376
-14.645584 67.81102 154.58307
-13.595726 68.866211 155.06329
-12.544085 69.921455 155.54443
-11.595697 69.952713 156.02579
-10.540499 71.008087 156.50876
-9.5907745 71.039124 156.98972
-8.5337925 72.094551 157.47359
-7.4750423 73.150047 157.95837
-6.4136162 74.205635 158.44453
-5.350872 75.261009 158.9303
-4.2858906 76.316711 159.41827
-3.2195778 77.372208 159.90585
-2.1510372 78.42804 160.39568
-0.96546936 80.508072 160.89127
0.22322273 82.588478 161.38953
1.4159012 84.668762 161.88875
2.613039 86.749191 162.39026
3.8128452 88.82972 162.89316
5.0175304 90.910675 163.39963
6.2253361 92.99147 163.90662
7.4366856 95.072395 164.41544
8.6524982 97.153473 164.92651
9.9951344 100.25909 165.44843
11.343538 103.36516 165.97435
12.69816 106.47146 166.50349
14.05813 109.57793 167.03537
15.551138 113.70916 167.58124
17.050806 117.84088 168.13159
-63.289551 107.74486 126.47832
-62.609009 101.64607 127.14911
-61.835426 97.590858 127.75905
-61.06958 93.535378 128.36502
-60.257744 90.501923 128.94139
-59.451244 87.468025 129.51392
-58.594757 85.456284 130.0589
-57.741814 83.44416 130.60097
-56.893242 81.432159 131.14188
-55.988976 80.441978 131.65598
-55.087036 79.451988 132.16998
-54.186779 78.461678 132.68204
-53.350834 76.449234 133.21646
-52.455551 75.458748 133.72595
-51.626091 73.445816 134.25598
-50.735977 72.455414 134.7639
-49.781723 72.487137 135.24936
-48.961067 70.473907 135.77486
-48.076904 69.483307 136.27972
-47.194431 68.492378 136.78265
-46.31382 67.501389 137.28461
-45.365086 67.533188 137.76833
-44.487503 66.542091 138.26874
-43.539207 66.573608 138.75113
-42.664742 65.582413 139.24994
-41.717506 65.613892 139.73178
-40.845879 64.622589 140.22914
-39.899899 64.65403 140.71036
-39.0313 63.662628 141.20615
-38.086296 63.694035 141.68686
-37.141293 63.725441 142.16757
-36.276779 62.733894 142.66125
-35.332928 62.765259 143.14139
-34.389076 62.796623 143.62149
-33.445236 62.827988 144.10162
-32.585342 61.836021 144.59186
-31.642647 61.867348 145.07138
-30.699692 61.898682 145.55104
-29.757086 61.930008 146.03052
-28.726341 62.984268 146.49983
-27.782845 63.015625 146.97977
-26.838903 63.046726 147.45885
-25.895412 63.078079 147.93878
-24.952368 63.109154 148.4174
-24.008869 63.140503 148.89734
-22.971899 64.194984 149.36987
-22.027069 64.22612 149.8494
-21.082689 64.2575 150.32977
-20.042158 65.312103 150.80412
-19.096445 65.343269 151.28412
-18.151606 65.374405 151.76364
-17.106636 66.429153 152.24026
-16.160919 66.46032 152.72028
-15.113272 67.515167 153.19827
-14.06385 68.570076 153.67717
-13.012657 69.625046 154.15701
-11.959681 70.680077 154.63773
-11.009508 70.711395 155.12
-9.9538651 71.766518 155.60211
-9.0037041 71.797836 156.08438
-7.9440517 72.852829 156.56746
-6.883955 73.908104 157.05185
-5.8212032 74.96347 157.5376
-4.7570953 76.018616 158.02295
-3.5781956 78.09816 158.51404
-2.5087605 79.153488 159.00211
-1.5523777 79.18502 159.48758
-0.36501503 81.264587 159.9819
0.82590675 83.344269 160.47806
2.02038 85.42408 160.97601
3.2192974 87.504044 161.47629
4.4217739 89.584129 161.97836
5.6278172 91.664337 162.48227
6.8374043 93.744667 162.98801
8.1729374 96.849503 163.50406
9.3914127 98.930138 164.01434
10.7376 102.03534 164.53589
12.089594 105.14047 165.05933
13.44734 108.24608 165.58679
14.937696 112.37616 166.12695
16.307459 115.4819 166.65948
-62.894157 105.42553 125.5929
-62.166855 100.35014 126.23992
-61.39595 96.295898 126.85284
-60.633331 92.241631 127.4626
-59.823284 89.208649 128.04022
-58.963783 87.197548 128.58891
-58.108192 85.186317 129.13562
-57.256058 83.17469 129.67943
-56.408386 81.163193 130.22208
-55.504848 80.173515 130.73798
-54.603073 79.183517 131.25189
-53.765095 77.171684 131.78955
-52.868126 76.181519 132.30099
-51.973572 75.191536 132.81229
-51.145096 73.179108 133.34396
-50.255424 72.188957 133.85275
-49.301357 72.22094 134.3392
-48.481682 70.208206 134.86638
-47.59761 69.217598 135.3712
-46.715858 68.22718 135.87592
-45.765518 68.258774 136.35938
-44.886337 67.267998 136.86169
-44.009651 66.277405 137.36382
-43.061443 66.308922 137.84616
-42.187252 65.317978 138.34593
-41.240017 65.349457 138.82777
-40.292965 65.380928 139.30954
-39.422775 64.389854 139.80725
-38.476692 64.421288 140.2885
-37.609528 63.430107 140.78467
-36.664612 63.46151 141.26532
-35.719604 63.492912 141.74603
-34.856514 62.501587 142.24008
-33.912674 62.532951 142.72021
-32.96891 62.564312 143.20029
-32.025154 62.595673 143.68033
-31.166599 61.603928 144.17097
-30.223904 61.635254 144.65051
-29.281301 61.666573 145.12997
-28.250107 62.720589 145.59845
-27.306616 62.751945 146.0784
-26.363127 62.783298 146.55832
-25.419186 62.8144 147.0374
-24.475689 62.845753 147.51733
-23.439159 63.899956 147.98856
-22.494329 63.931087 148.46808
-21.454687 64.985657 148.94196
-20.509855 65.016792 149.42148
-19.564144 65.047958 149.90149
-18.520496 66.102402 150.37634
-17.575226 66.133812 150.85718
-16.528913 67.188347 151.3334
-15.581415 67.219574 151.81432
-14.532431 68.2742 152.2919
-13.584936 68.305428 152.77283
-12.532841 69.359894 153.25092
-11.478523 70.414703 153.73126
-10.423325 71.469551 154.21205
-9.366333 72.524452 154.69376
-8.4143925 72.555832 155.17694
-7.3542919 73.610573 155.65915
-6.2919788 74.665657 156.14359
-5.2283115 75.720528 156.62764
-4.1624432 76.775734 157.11391
-3.094347 77.83075 157.60022
-1.9109688 79.909912 158.0914
-0.83842659 80.965088 158.58002
0.23590469 82.020317 159.06953
1.4286003 84.099533 159.56442
2.6257572 86.178909 160.0616
3.8264637 88.258392 160.56058
5.0307331 90.338013 161.0614
6.2385426 92.417747 161.56406
7.5718632 95.521713 162.07571
8.7890263 97.601501 162.58206
10.132113 100.7058 163.09875
11.481878 103.81007 163.61777
12.837427 106.91479 164.14084
14.324244 111.04369 164.67484
15.692694 114.14859 165.20343
17.193735 118.27797 165.74472
-62.500565 103.10721 124.71092
-61.72506 99.054451 125.33163
-60.957382 95.001427 125.94835
-60.143265 91.96965 126.5324
-59.335011 88.937668 127.11346
-58.476315 86.927071 127.66391
-57.621628 84.916344 128.21233
-56.770401 82.90522 128.75787
-55.923439 80.894218 129.30229
-55.020531 79.9048 129.81897
-54.180412 77.893562 130.35989
-53.281944 76.903717 130.8732
-52.38578 75.914055 131.3864
-51.491669 74.924332 131.89857
-50.599072 73.93428 132.40887
-49.70887 72.94442 132.91901
-48.887611 70.932541 133.45026
-48.001862 69.942261 133.95703
-47.118595 68.952156 134.46362
-46.167187 68.98378 134.94763
-45.286507 67.993324 135.4518
-44.336609 68.025162 135.9361
-43.458942 67.034607 136.43874
-42.583145 66.043976 136.9404
-41.709934 65.053528 137.44183
-40.762619 65.085014 137.92372
-39.891888 64.094223 138.42279
-38.94582 64.125664 138.90405
-37.999657 64.157104 139.38536
-37.132931 63.166172 139.88237
-36.187927 63.197578 140.36308
-35.242924 63.228981 140.8438
-34.298004 63.26038 141.32445
-33.436344 62.269272 141.81886
-32.492416 62.30064 142.29901
-31.548742 62.332001 142.77905
-30.604988 62.363361 143.25912
-29.660421 62.394485 143.73851
-28.716925 62.425838 144.21844
-27.773436 62.457191 144.69838
-26.740011 63.511017 145.1669
-25.795631 63.542404 145.64729
-24.850801 63.573532 146.12682
-23.906416 63.604919 146.60721
-22.961592 63.636055 147.08676
-21.921946 64.690094 147.55847
-20.976673 64.721512 148.03931
-20.031841 64.75264 148.51884
-18.988632 65.806801 148.99239
-17.943655 66.861031 149.46686
-16.996601 66.892502 149.94861
-16.049995 66.923698 150.42905
-15.001455 67.978043 150.90533
-14.053068 68.0093 151.38669
-13.001862 69.063736 151.86435
-12.053026 69.094742 152.34483
-10.998262 70.149307 152.82431
-9.9426041 71.203896 153.30426
-8.8842869 72.258575 153.78555
-7.8246326 73.313042 154.26645
-6.762743 74.367844 154.74957
-5.6986446 75.422462 155.23277
-4.6340923 76.477356 155.71727
-3.5664444 77.532097 156.20227
-2.497448 78.587143 156.68906
-1.4262295 79.642006 157.1759
-0.237957 81.720535 157.66634
0.83860016 82.775581 158.1559
2.0330906 84.854324 158.64954
3.2320271 86.933228 159.14545
4.4345264 89.012245 159.64317
5.6405773 91.091393 160.14273
6.8506298 93.170403 160.64325
8.1861782 96.273651 161.15282
9.4051304 98.352966 161.65791
10.751337 101.45658 162.17294
12.228399 105.58408 162.69754
13.586634 108.68783 163.21765
15.077909 112.8158 163.74957
16.449488 115.92002 164.27652
-62.837532 105.86256 123.17371
-62.057426 101.8113 123.80223
-61.284698 97.759514 124.42589
-60.519707 93.707466 125.04557
-59.707916 90.676407 125.6317
-58.846199 88.666443 126.18588
-58.045078 85.63501 126.76653
-57.192265 83.624748 127.31615
-56.343182 81.614357 127.86387
-55.438667 80.625252 128.38245
-54.536026 79.636086 128.90007
-53.635422 78.646835 129.41664
-52.736782 77.657532 129.93221
-51.903526 75.646599 130.47179
-51.009331 74.656868 130.98399
-50.117531 73.667328 131.49605
-49.227875 72.677711 132.007
-48.33963 71.687782 132.51616
-47.522118 69.6763 133.04765
-46.639214 68.686455 133.55515
-45.687813 68.718079 134.03914
-44.80793 67.728127 134.54507
-43.857502 67.75972 135.02858
-42.980644 66.769669 135.53296
-42.105473 65.779282 136.0354
-41.232086 64.788841 136.53693
-40.285217 64.82058 137.01967
-39.415028 63.830032 137.51956
-38.468689 63.861481 138.00095
-37.522526 63.892921 138.48224
-36.576462 63.924366 138.9635
-35.711246 62.933647 139.46083
-34.766159 62.965054 139.94159
-33.821236 62.996452 140.42224
-32.87632 63.027855 140.90291
-32.01609 62.036964 141.39767
-31.07225 62.068329 141.87781
-30.128395 62.099693 142.35791
-29.184187 62.130806 142.83713
-28.240698 62.162159 143.31706
-27.297209 62.193512 143.797
-26.353268 62.224613 144.27606
-25.318062 63.278503 144.7455
-24.373224 63.309631 145.22504
-23.335365 64.363617 145.69583
-22.389647 64.394775 146.17583
-21.444809 64.425911 146.65536
-20.403389 65.480011 147.12799
-19.456776 65.511208 147.60843
-18.412243 66.565155 148.08157
-17.464737 66.596375 148.56248
-16.417528 67.650414 149.037
-15.469137 67.681664 149.51834
-14.521639 67.712891 149.99925
-13.469988 68.767075 150.47604
-12.521595 68.798332 150.9574
-11.468161 69.852585 151.43512
-10.412064 70.906921 151.91418
-9.3546181 71.961044 152.39285
-8.4026718 71.992424 152.87604
-7.3430157 73.046883 153.35693
-6.1707497 75.124336 153.83701
-5.1057529 76.178986 154.32065
-4.0385284 77.233444 154.80434
-2.9695301 78.287956 155.28894
-1.8992081 79.342789 155.77533
-0.71180725 81.420753 156.26312
0.36429787 82.475517 156.75137
1.5579071 84.553703 157.24237
2.7559681 86.632042 157.73566
3.958025 88.710251 158.22992
5.1632061 90.788826 158.72684
6.3719273 92.867531 159.22562
7.5855503 94.946136 159.7258
8.8014011 97.025085 160.22821
10.145853 100.12757 160.73798
11.495634 103.23024 161.25049
12.850771 106.33309 161.76572
14.338961 110.45964 162.29062
15.833818 114.58667 162.82001
17.337122 118.71374 163.35266
-63.127403 109.63708 121.59548
-62.44342 103.54507 122.29525
-61.667061 99.494736 122.9262
-60.898003 95.443878 123.55232
-60.083019 92.414001 124.14445
-59.273369 89.383659 124.73274
-58.413979 87.37442 125.28899
-57.558159 85.364784 125.84235
-56.706055 83.355026 126.39377
-55.858047 81.345131 126.94309
-54.953812 80.356277 127.46263
-54.112652 78.346146 128.00845
-53.151379 78.37838 128.4986
-52.253265 77.389313 129.01497
-51.356949 76.400192 129.53046
-50.527439 74.389664 130.07028
-49.636177 73.400368 130.58315
-48.746792 72.411011 131.09506
-47.859001 71.421326 131.60507
-47.04229 69.410355 132.13832
-46.159843 68.420753 132.64667
-45.208435 68.452385 133.13068
-44.328915 67.462685 133.63751
-43.451073 66.472664 134.1424
-42.502075 66.504471 134.62625
-41.627174 65.514343 135.12962
-40.679333 65.546112 135.61288
-39.807461 64.555885 136.11472
-38.860146 64.587372 136.59662
-37.991734 63.59729 137.09775
-37.045578 63.628738 137.57906
-36.099327 63.660187 138.06041
-35.153347 63.691624 138.54163
-34.289471 62.701122 139.03934
-33.344467 62.732529 139.52005
-32.39946 62.763931 140.00076
-31.454639 62.795326 140.48137
-30.509813 62.826729 140.96199
-29.564535 62.857876 141.44174
-28.619356 62.889286 141.92255
-27.674971 62.92067 142.40295
-26.730141 62.951801 142.88248
-25.785763 62.983185 143.36285
-24.841377 63.014572 143.84326
-23.896547 63.0457 144.32278
-22.857788 64.099182 144.79189
-21.912514 64.1306 145.27274
-20.87108 65.184166 145.74319
-19.924919 65.215614 146.22449
-18.880819 66.269272 146.69632
-17.933317 66.300499 147.17722
-16.886545 67.354256 147.65042
-15.938166 67.385513 148.13177
-14.888729 68.439354 148.60635
-13.939449 68.470642 149.08815
-12.887344 69.524574 149.56409
-11.93718 69.555893 150.04636
-10.881948 70.609673 150.5228
-9.8245182 71.663795 151.0015
-8.7653008 72.717972 151.48108
-7.8133507 72.749352 151.96426
-6.7510204 73.803375 152.44437
-5.6868973 74.85746 152.92535
-4.5106277 76.934784 153.40637
-3.44207 77.989021 153.88968
-2.3717327 79.04332 154.37389
-1.1852131 81.120728 154.85905
-0.10954285 82.175201 155.34601
1.0831852 84.252831 155.83438
2.1632977 85.307465 156.32361
3.3622532 87.3853 156.81519
4.5661106 89.463036 157.30817
5.8936749 92.564407 157.80708
7.1055279 94.642426 158.30417
8.1998844 95.69754 158.80072
9.5412312 98.799126 159.30563
10.888819 101.90092 159.81375
12.241739 105.0029 160.32458
13.601336 108.10484 160.83777
14.965799 111.20721 161.35455
16.463808 115.33303 161.88013
18.098402 120.48267 162.41714
-62.781342 106.29854 120.74994
-61.999397 102.24919 121.38702
-61.225723 98.199829 122.02095
-60.406227 95.170898 122.61865
-59.647228 91.121033 123.24506
-58.784286 89.112175 123.80421
-57.925804 87.103439 124.3622
-57.070686 85.094315 124.91734
-56.219936 83.085304 125.47133
-55.372742 81.075912 126.02243
-54.46904 80.087311 126.54277
-53.5672 79.09864 127.06216
-52.667503 78.109901 127.58044
-51.769585 77.121101 128.09782
-50.873707 76.132233 128.61415
-49.979874 75.143295 129.12943
-49.15419 73.133156 129.66948
-48.265343 72.144051 130.18219
-47.378357 71.154869 130.69395
-46.562546 69.144402 131.22894
-45.68055 68.155052 131.73814
-44.800056 67.16539 132.2455
-43.849983 67.197235 132.72989
-42.972961 66.207718 133.23654
-42.023594 66.239273 133.71948
-41.149506 65.249649 134.22464
-40.201035 65.281174 134.70712
-39.329697 64.291191 135.20976
-38.382744 64.322937 135.69257
-37.435421 64.354416 136.17445
-36.488281 64.385895 136.65625
-35.541145 64.417374 137.13806
-34.594009 64.448853 137.61987
-33.729607 63.458637 138.11896
-32.78371 63.49007 138.60011
-31.837643 63.521511 139.08138
-30.89175 63.552948 139.56255
-30.032505 62.562553 140.05899
-29.087673 62.593948 140.5396
-28.14267 62.625355 141.02031
-27.198292 62.656738 141.5007
-26.253469 62.687874 141.98024
-25.308187 62.719284 142.46107
-24.363363 62.75042 142.94061
-23.418985 62.781807 143.42101
-22.379761 63.83503 143.88922
-21.434494 63.866447 144.37009
-20.392609 64.919769 144.83969
-19.348946 65.973145 145.31018
-18.401451 66.004372 145.79111
-17.35512 67.057846 146.26297
-16.406736 67.089104 146.74434
-15.357737 68.142662 147.21759
-14.408461 68.17395 147.6994
-13.356792 69.227608 148.17401
-12.406631 69.258926 148.65631
-11.351408 70.312698 149.13275
-10.295296 71.366508 149.60965
-9.2360668 72.420158 150.08707
-8.1755142 73.474121 150.56625
-7.2226753 73.505531 151.0499
-6.2685051 73.53672 151.53314
-5.0935497 75.613197 152.01019
-4.0267696 76.667374 152.49258
-2.9577656 77.721359 152.97501
-1.7730236 79.79818 153.45712
-0.58472633 81.875114 153.94104
0.49227715 82.929375 154.42758
1.6872501 85.006271 154.91382
2.7687054 86.060684 155.40265
3.9703312 88.138084 155.89342
5.1759739 90.215355 156.38516
6.5062275 93.31575 156.8811
7.7194233 95.393547 157.37779
8.9375019 97.471237 157.87592
10.159151 99.549057 158.37585
11.508966 102.65013 158.88187
12.86545 105.75117 159.39018
14.352797 109.87556 159.90591
15.7204 112.97725 160.42105
17.222841 117.10215 160.94455
-62.386696 103.98184 119.87502
-61.608955 99.933685 120.51538
-60.78582 96.905678 121.11822
-59.968651 93.877457 121.718
-59.157246 90.849045 122.3148
-58.295212 88.840691 122.87569
-57.437531 86.832458 123.43542
-56.583763 84.824081 123.99316
-55.733467 82.815331 124.54801
-54.887436 80.806686 125.10176
-53.984184 79.818344 125.62297
-53.082794 78.829926 126.1432
-52.183456 77.841438 126.6624
-51.28598 76.85289 127.18063
-50.390556 75.864273 127.69782
-49.563286 73.854988 128.24194
-48.672844 72.866196 128.75658
-47.784256 71.877342 129.27023
-46.89782 70.888412 129.78281
-46.082817 68.878448 130.31956
-45.201256 67.889351 130.82962
-44.321117 66.899933 131.33786
-43.370964 66.931786 131.82233
-42.494389 65.94252 132.32982
-41.544933 65.974075 132.81281
-40.671295 64.984711 133.31882
-39.722916 65.016228 133.80127
-38.852207 64.026756 134.30576
-37.90498 64.058243 134.7876
-36.957661 64.089729 135.2695
-36.010345 64.121208 135.7514
-35.063118 64.152695 136.23326
-34.116066 64.184166 136.715
-33.16893 64.215645 137.19681
-32.221886 64.247116 137.67856
-31.275009 64.278587 138.16025
-30.328053 64.310059 138.64195
-29.468187 63.319954 139.1398
-28.522385 63.351387 139.62091
-27.665545 62.361176 140.1172
-26.721167 62.392559 140.5976
-25.685061 63.445415 141.06314
-24.738897 63.47686 141.54445
-23.793629 63.508274 142.0253
-22.847904 63.539436 142.50528
-21.902636 63.570854 142.98613
-20.861195 64.623886 143.45441
-19.914579 64.655083 143.93486
-18.870472 65.708214 144.40451
-17.823692 66.761436 144.87553
-16.875753 66.792938 145.35776
-15.826748 67.845978 145.82884
-14.87793 67.87751 146.31151
-13.826244 68.930634 146.78397
-12.876532 68.962204 147.26709
-11.821301 70.01545 147.74136
-10.870243 70.046799 148.22409
-9.8136864 71.100357 148.70013
-8.754015 72.153755 149.1767
-7.6930065 73.207466 149.65503
-6.6297741 74.260994 150.13342
-5.6751614 74.292458 150.61797
-4.6092529 75.346069 151.09772
-3.4298458 77.422173 151.57489
-2.3595009 78.475937 152.05692
-1.2869396 79.530045 152.5412
-0.097290039 81.606232 153.02254
1.0954552 83.682793 153.50658
2.2930851 85.759254 153.99202
3.3758869 86.813446 154.48044
4.5793095 88.890373 154.96996
5.786726 90.967171 155.46042
6.9977207 93.044083 155.95271
8.33465 96.143921 156.44882
9.5545216 98.221146 156.94571
10.902582 101.3211 157.44644
12.255526 104.42148 157.95078
13.615145 107.52183 158.45743
14.97965 110.6226 158.96771
16.478121 114.74605 159.48372
17.984137 118.87001 160.0047
-62.673401 107.75274 118.28319
-61.993858 101.66616 119.00352
-61.167267 98.639061 119.6114
-60.346367 95.611771 120.21635
-59.476875 93.604477 120.78433
-58.666824 90.576813 121.38371
-57.806038 88.569214 121.9472
-56.949265 86.561478 122.50867
-56.09639 84.553604 123.0681
-55.246902 82.545357 123.62473
-54.341515 81.557602 124.14919
-53.498871 79.549118 124.70229
-52.598389 78.561203 125.22425
-51.699409 77.572975 125.74435
-50.802467 76.584671 126.2634
-49.907402 75.596306 126.78148
-49.081039 73.587524 127.32733
-48.190857 72.598991 127.84291
-47.302811 71.610382 128.35739
-46.416729 70.621712 128.87086
-45.5326 69.632965 129.38333
-44.721436 67.623398 129.92029
-43.84219 66.634491 130.43025
-42.892128 66.666336 130.91464
-41.941517 66.697929 131.39822
-41.066368 65.708885 131.9061
-40.116825 65.74044 132.38913
-39.244617 64.751289 132.89549
-38.296318 64.782806 133.37788
-37.348301 64.814583 133.86124
-36.400009 64.8461 134.34364
-35.451794 64.877617 134.82599
-34.50359 64.909126 135.30833
-33.555386 64.940643 135.79068
-32.607269 64.972153 136.27299
-31.659336 65.003662 136.75522
-30.711308 65.035172 137.23749
-29.763367 65.066681 137.7197
-28.903059 64.076851 138.21884
-27.956455 64.108307 138.70038
-27.098471 63.118408 139.19835
-26.153202 63.149818 139.6792
-25.20792 63.181232 140.16003
-24.168701 64.233932 140.6261
-23.222546 64.265373 141.10741
-22.27593 64.29657 141.58784
-21.329775 64.328011 142.06915
-20.382271 64.359238 142.55005
-19.338608 65.412086 143.0184
-18.293152 66.464996 143.48764
-17.345211 66.496506 143.96986
-16.295765 67.549286 144.44008
-15.346933 67.580818 144.92276
-14.2957 68.633667 145.39389
-13.345985 68.66523 145.87701
-12.291197 69.718201 146.34998
-11.235075 70.771477 146.82472
-10.284018 70.802826 147.30745
-9.224781 71.855942 147.78268
-8.1642227 72.90937 148.2597
-7.1014309 73.962616 148.73679
-6.1468124 73.99408 149.22133
-5.0813503 75.047417 149.69977
-4.0145645 76.101059 150.17998
-2.9455528 77.15451 150.66025
-1.7607918 79.230263 151.138
-0.68644333 80.283905 151.62099
0.50498772 82.359619 152.10107
1.6995182 84.435707 152.58383
2.8989429 86.511696 153.06802
3.9830875 87.565674 153.55606
5.1887417 89.641876 154.04346
6.3988323 91.718231 154.53311
7.7326756 94.817162 155.02438
8.9507694 96.893799 155.51816
10.173326 98.970581 156.01422
11.522734 102.06978 156.51239
13.003878 106.19183 157.01624
14.366625 109.29148 157.52124
15.734701 112.39133 158.02899
17.237631 116.51385 158.54294
18.747683 120.63663 159.06055
-62.32933 104.41705 117.44858
-61.550735 100.37132 118.09918
-60.779884 96.325317 118.7458
-59.908264 94.318619 119.31705
-59.04055 92.311798 119.88629
-58.176842 90.304825 120.45348
-57.373917 87.277718 121.05246
-56.461082 86.290497 121.58185
-55.549648 85.302956 122.10942
-54.700615 83.295486 122.66908
-53.855312 81.287888 123.22681
-53.014194 79.280144 123.78239
-52.113529 78.292236 124.30443
-51.215538 77.304504 124.82622
-50.383564 75.296181 125.376
-49.490379 74.308281 125.89531
-48.598686 73.320061 126.41275
-47.709053 72.331779 126.92914
-46.821373 71.34343 127.44453
-45.93573 70.355003 127.95886
-45.05196 69.366516 128.47224
-44.242142 67.357697 129.01175
-43.363354 66.369034 129.52258
-42.412659 66.400635 130.00621
-41.462585 66.43248 130.4906
-40.511978 66.464081 130.9742
-39.63826 65.47525 131.48242
-38.688721 65.506805 131.96545
-37.81802 64.517868 132.47212
-36.869637 64.549393 132.95456
-35.921707 64.581161 133.43787
-34.973412 64.612679 133.92026
-34.025291 64.644188 134.40257
-33.077 64.675705 134.88496
-32.128883 64.707222 135.36728
-31.180857 64.738731 135.84955
-30.232826 64.770241 136.33182
-29.284893 64.801743 136.81403
-28.336945 64.833244 137.29623
-27.388924 64.864754 137.77849
-26.531376 63.875099 138.27731
-25.584332 63.906578 138.75908
-24.63817 63.938023 139.24039
-23.690672 63.969246 139.72128
-22.744509 64.000687 140.20258
-21.702169 65.05323 140.66916
-20.755125 65.084702 141.15091
-19.807623 65.115929 141.63181
-18.761728 66.168594 142.10022
-17.813345 66.199844 142.58157
-16.765669 67.252563 143.05089
-15.715321 68.305382 143.52156
-14.765152 68.336693 144.00383
-13.713032 69.389572 144.47543
-12.761093 69.420944 144.95862
-11.706305 70.473915 145.43158
-10.648392 71.526718 145.90504
-9.6955643 71.558128 146.38869
-8.7427254 71.589539 146.87233
-7.6817112 72.642715 147.34848
-6.6184654 73.695702 147.82469
-5.5534477 74.748756 148.30182
-4.4871025 75.802124 148.78072
-3.4176369 76.855324 149.26013
-2.347271 77.908562 149.73999
-1.2751389 78.961853 150.22076
-0.08549118 81.036972 150.69775
1.1081676 83.112503 151.17792
2.3058224 85.187897 151.659
3.5061436 87.26339 152.14148
4.5925159 88.317177 152.62958
5.7999516 90.392906 153.11569
7.1320362 93.490715 153.60168
8.3483715 95.566757 154.09239
9.6915569 98.665207 154.58517
10.915895 100.74152 155.07999
12.145124 102.81773 155.5762
13.628946 106.93881 156.07709
15.120348 111.05988 156.58078
16.492434 114.15906 157.08731
17.998064 118.28062 157.5983
19.382166 121.37994 158.10992
-61.883976 103.12149 116.54211
-61.161125 98.057381 117.23364
-60.286491 96.051323 117.80862
-59.470695 93.025719 118.41857
-58.604767 91.019356 118.98906
-57.743294 89.013115 119.55835
-56.885292 87.006485 120.12479
-55.972267 86.019264 120.65427
-55.121643 84.01265 121.218
-54.2136 83.025261 121.74492
-53.369286 81.018158 122.30434
-52.528885 79.010925 122.86171
-51.629204 78.023514 123.38544
-50.731033 77.035782 123.9073
-49.900505 75.028214 124.45963
-49.007225 74.040314 124.97897
-48.183544 72.032509 125.52779
-47.295235 71.044441 126.04459
-46.340008 71.076462 126.53162
-45.454643 70.088295 127.04691
-44.642788 68.080078 127.58965
-43.762314 67.091743 128.10242
-42.883972 66.103333 128.61411
-41.933727 66.135185 129.0986
-40.983032 66.166786 129.58223
-40.033051 66.198631 130.06657
-39.082451 66.230225 130.55016
-38.210056 65.241615 131.05878
-37.339809 64.252922 131.56631
-36.311699 65.304977 132.02557
-35.362331 65.336533 132.50851
-34.413063 65.36808 132.99142
-33.463795 65.399635 133.47433
-32.51461 65.431183 133.95718
-31.565607 65.462723 134.43994
-30.616417 65.49427 134.92279
-29.667414 65.525818 135.40555
-28.718584 65.55735 135.88823
-27.769579 65.588898 136.371
-26.820932 65.620422 136.85358
-25.962509 64.631332 137.35503
-25.015007 64.662552 137.83594
-24.067074 64.694061 138.31815
-23.119135 64.725563 138.80035
-22.171631 64.75679 139.28127
-21.223696 64.788292 139.76347
-20.180017 65.840614 140.22966
-19.230743 65.871902 140.71146
-18.184401 66.924309 141.17902
-17.234673 66.955872 141.66212
-16.185209 68.008125 142.13019
-15.235498 68.039696 142.61331
-14.182926 69.092316 143.08405
-13.12813 70.144753 143.55484
-12.176182 70.176132 144.03802
-11.119171 71.228905 144.51105
-10.166338 71.260315 144.99467
-9.1062012 72.312935 145.4682
-8.1524773 72.344368 145.9523
-7.090126 73.397331 146.42807
-6.0255489 74.450104 146.90387
-4.9591904 75.50293 147.38058
-3.8901615 76.555855 147.85869
-2.820694 77.609055 148.33809
-1.7481098 78.662102 148.81801
-0.55933189 80.736664 149.29239
0.51680756 81.789833 149.77414
1.7126942 83.864639 150.25217
2.9121456 85.93956 150.73199
3.9962902 86.993011 151.21785
5.2019482 89.068146 151.7009
6.4111805 91.14341 152.18576
7.7463856 94.240524 152.6701
8.9645023 96.316093 153.15953
10.310369 99.413574 153.64935
11.661592 102.51124 154.14194
12.892145 104.58723 154.63776
14.25448 107.68501 155.13492
15.74946 111.80515 155.63608
17.251535 115.92551 156.1409
18.632082 119.02419 156.64853
-62.169388 106.88924 114.9379
-61.492409 100.80762 115.6776
-60.720261 96.763794 116.3336
-59.847855 94.758453 116.91068
-58.979012 92.752731 117.48486
-58.114433 90.747124 118.05792
-57.253319 88.741127 118.62811
-56.39621 86.735001 119.19627
-55.543369 84.728989 119.76331
-54.633827 83.74192 120.2921
-53.726677 82.755035 120.82072
-52.883175 80.748436 121.3819
-52.043755 78.741699 121.94096
-51.144352 77.754547 122.46564
-50.311779 75.747574 123.02118
-49.417347 74.760246 123.54329
-48.591633 72.753044 124.09532
-47.701736 71.765297 124.61403
-46.813881 70.777481 125.13167
-45.928352 69.789848 125.64922
-44.973652 69.821587 126.13491
-44.16251 67.813881 126.67946
-43.283024 66.826042 127.19389
-42.405128 65.837883 127.70644
-41.454346 65.869484 128.19011
-40.504185 65.901337 128.67456
-39.55349 65.932938 129.15819
-38.60334 65.964783 129.64264
-37.731491 64.976418 130.15207
-36.781948 65.00798 130.6351
-35.832588 65.039536 131.11804
-34.883591 65.071342 131.6019
-33.851822 66.122978 132.06085
-32.901566 66.154564 132.54427
-32.035774 65.165993 133.0506
-31.086592 65.19754 133.53345
-30.137587 65.229088 134.01622
-29.188494 65.260635 134.49902
-28.239481 65.292175 134.98178
-27.290564 65.323715 135.46451
-26.342007 65.35524 135.94704
-25.393177 65.38678 136.42972
-24.535645 64.397652 136.93071
-23.495075 65.4496 137.3942
-22.546246 65.481133 137.87686
-21.597416 65.512672 138.35954
-20.649031 65.543922 138.8409
-19.603123 66.596054 139.30713
-18.654293 66.627586 139.78979
-17.704134 66.658905 140.27206
-16.655556 67.711121 140.73965
-15.704504 67.742477 141.2224
-14.653263 68.794785 141.69136
-13.701317 68.826164 142.17453
-12.646521 69.878593 142.64532
-11.590378 70.930809 143.11571
-10.532026 71.983368 143.58832
-9.5774212 72.014839 144.07289
-8.5159435 73.06723 144.54601
-7.5613365 73.098709 145.03058
-6.4976444 74.151443 145.50592
-5.4317207 75.203995 145.98132
-4.3631325 76.256638 146.4581
-3.2936668 77.309311 146.93535
-2.2215157 78.362076 147.41394
-1.1484871 79.414871 147.89301
0.042076111 81.488953 148.36612
1.2370834 83.563202 148.84152
2.3181248 84.616272 149.32468
3.5193501 86.690727 149.80327
4.604845 87.74395 150.28873
5.8122921 89.818619 150.77051
7.0241947 91.893448 151.25458
8.3616352 94.989838 151.73679
9.581995 97.064682 152.22412
10.930101 100.16145 152.71182
12.283533 103.25839 153.20227
13.642767 106.35527 153.69458
15.007769 109.45261 154.19098
16.378557 112.54988 154.68922
17.884218 116.66931 155.19153
19.397429 120.78874 155.69659
-62.458664 110.65445 113.3219
-61.774696 104.57468 114.07172
-61.049393 99.513313 114.77538
-60.226868 96.489792 115.39639
-59.409851 93.465836 116.01352
-58.48732 92.479736 116.55113
-57.62365 90.474632 117.12592
-56.763428 88.469147 117.69783
-55.907578 86.463768 118.26859
-55.055099 84.458008 118.83654
-54.14645 83.471443 119.36705
-53.239758 82.484802 119.89655
-52.397232 80.478706 120.45937
-51.558899 78.472733 121.02115
-50.724113 76.466362 121.58001
-49.827824 75.479111 122.10309
-48.933926 74.492027 122.62601
-48.041908 73.50489 123.14796
-47.22002 71.498077 123.70022
-46.332436 70.510521 124.21882
-45.44735 69.52314 124.73722
-44.56395 68.535439 125.25368
-43.682327 67.547668 125.76921
-42.803375 66.560081 126.28447
-41.851524 66.591721 126.76869
-40.97551 65.604034 127.28244
-40.024727 65.635635 127.76613
-39.074566 65.66748 128.25056
-38.123962 65.699081 128.73416
-37.173355 65.730682 129.21774
-36.302929 64.742531 129.72752
-35.353844 64.774338 130.21141
-34.32243 65.825706 130.66913
-33.372627 65.857544 131.15338
-32.422283 65.88913 131.63683
-31.472126 65.920715 132.12018
-30.607746 64.932358 132.62688
-29.658566 64.963905 133.10973
-28.709471 64.995453 133.59253
-27.671829 66.047028 134.05344
-26.721848 66.078606 134.53668
-25.771778 66.110184 135.02
-24.913807 65.121346 135.52232
-23.964977 65.152878 136.005
-23.016148 65.184418 136.48767
-21.972462 66.236198 136.95166
-21.022743 66.267769 137.43478
-20.073469 66.299049 137.9166
-19.123753 66.33062 138.39973
-18.075621 67.382561 138.86603
-17.12545 67.413872 139.34828
-16.174845 67.445473 139.83188
-15.123596 68.497253 140.29868
-14.172098 68.528877 140.7827
-13.117287 69.58078 141.25131
-12.061157 70.632996 141.72171
-11.00279 71.68502 142.19215
-10.049067 71.716461 142.67625
-8.9884911 72.768829 143.14893
-7.9247875 73.821037 143.6221
-6.8602009 74.873276 144.09573
-5.793829 75.925575 144.5703
-4.8365536 75.957138 145.05621
-3.7666283 77.00956 145.53259
-2.6958122 78.062012 146.00943
-1.5079117 80.135475 146.479
-0.43266106 81.18808 146.95811
0.64527321 82.240784 147.4386
1.8420658 84.314552 147.91272
2.924448 85.367401 148.39551
4.1274662 87.441391 148.87283
5.2142811 88.494392 149.35788
6.42486 90.568375 149.83801
7.760088 93.663895 150.31583
8.9782276 95.738396 150.80092
10.323687 98.834 151.28293
11.550722 100.90881 151.77257
12.906843 104.00478 152.26004
14.267862 107.1012 152.7511
15.763308 111.21895 153.24271
17.137217 114.31552 153.73932
18.646898 118.43376 154.23822
20.163256 122.5525 154.74167
-62.112137 107.32071 112.49617
-61.381706 102.26112 113.20901
-60.607628 98.219749 113.87578
-59.733116 96.215553 114.45831
-58.917805 93.192589 115.0789
-58.051994 91.188087 115.65694
-57.132858 90.202141 116.19391
-56.273453 88.197159 116.76759
-55.359291 87.211044 117.302
-54.507271 85.20607 117.87299
-53.659164 83.200958 118.44195
-52.81443 81.195473 119.00809
-51.911118 80.208984 119.53694
-51.073677 78.203506 120.10043
-50.239796 76.197647 120.66101
-49.344307 75.210884 121.18584
-48.450329 74.223816 121.70881
-47.558754 73.236923 122.23164
-46.669228 72.249962 122.75342
-45.781208 71.262688 123.27333
-44.966534 69.256424 123.82513
-44.083401 68.268982 124.34254
-43.202316 67.281464 124.85889
-42.323547 66.294136 125.37514
-41.371788 66.325775 125.85931
-40.420471 66.357658 126.34435
-39.46925 66.389542 126.82935
-38.517479 66.421181 127.31351
-37.565895 66.452812 127.79761
-36.694336 65.465233 128.31017
-35.743729 65.496834 128.79376
-34.793388 65.528419 129.27719
-33.843323 65.560265 129.7616
-32.892899 65.591858 130.24509
-31.858276 66.643066 130.70334
-30.992392 65.655022 131.21188
-30.042137 65.686607 131.6953
-29.092068 65.718185 132.1786
-28.141909 65.749771 132.66196
-27.191837 65.781349 133.14528
-26.241943 65.812927 133.62849
-25.291954 65.844498 134.11176
-24.342237 65.87606 134.59488
-23.392519 65.907631 135.078
-22.442801 65.939201 135.56114
-21.492638 65.970512 136.04341
-20.542919 66.002083 136.52654
-19.593204 66.033646 137.00967
-18.545952 67.085022 137.47331
-17.595345 67.116623 137.95691
-16.544983 68.168373 138.42325
-15.593042 68.199753 138.90643
-14.642431 68.231346 139.39001
-13.58807 69.282974 139.85732
-12.63612 69.314346 140.3405
-11.57954 70.36631 140.81003
-10.520723 71.418083 141.2796
-9.4596901 72.4702 141.75143
-8.5050831 72.501671 142.23599
-7.3331776 74.574059 142.69516
-6.2663555 75.626106 143.16885
-5.1986542 76.678185 143.64301
-4.1282825 77.730354 144.11853
-3.057024 78.782562 144.59451
-1.9830875 79.834854 145.07185
-0.90737534 80.887207 145.55011
0.17010689 81.939621 146.0293
1.2493706 82.992104 146.50937
2.3304157 84.04464 146.99036
3.5316677 86.118034 147.4646
4.7369175 88.191299 147.93982
5.8259602 89.24411 148.42493
7.0374546 91.317589 148.90334
8.3749027 94.412392 149.37904
9.7181644 97.507118 149.85663
10.943419 99.581337 150.3432
12.297335 102.67644 150.82626
13.656595 105.77172 151.31207
15.021627 108.86746 151.80194
16.392435 111.96314 152.29367
17.769472 115.05904 152.7886
19.41094 120.19746 153.28238
-61.716835 105.00697 111.63357
-60.938156 100.96709 112.30814
-60.166771 96.926697 112.97791
-59.348892 93.904617 113.60307
-58.425304 92.91909 114.1434
-57.617027 89.89669 114.76364
-56.699326 88.910965 115.30097
-55.783562 87.925171 115.8373
-54.929413 85.920799 116.41154
-54.079185 83.916298 116.98378
-53.232948 81.911652 117.55396
-52.327953 80.925491 118.08476
-51.48848 78.920616 118.65147
-50.588104 77.934029 119.17882
-49.75547 75.928925 119.74201
-48.860435 74.942413 120.2677
-47.96727 73.955849 120.79243
-47.144066 71.95015 121.34971
-46.255867 70.963409 121.87187
-45.369728 69.976593 122.39301
-44.485001 68.989471 122.91232
-43.602859 68.002525 123.4314
-42.649406 68.034485 123.91753
-41.769745 67.04718 124.43423
-40.892048 66.059822 124.94994
-39.940731 66.091705 125.43497
-38.989418 66.123589 125.92
-38.037659 66.155228 126.40417
-37.086525 66.187111 126.88913
-36.13485 66.218742 127.37325
-35.264267 65.231133 127.88531
-34.232311 66.282249 128.34221
-33.280903 66.313881 128.8262
-32.329491 66.345497 129.31018
-31.378082 66.377121 129.79419
-30.427399 66.408997 130.2789
-29.562855 65.421173 130.78786
-28.612696 65.452759 131.27121
-27.662624 65.484337 131.75452
-26.712553 65.515915 132.23784
-25.76247 65.547493 132.72113
-24.812132 65.578812 133.20352
-23.862421 65.610382 133.68665
-22.912695 65.641945 134.16975
-21.962976 65.673515 134.65289
-20.917511 66.724831 135.11563
-19.966454 66.75618 135.59836
-19.015846 66.787773 136.08194
-18.065239 66.819374 136.56554
-17.015759 67.87056 137.02924
-16.064262 67.902184 137.51328
-15.011227 68.953499 137.97881
-14.058844 68.985153 138.4633
-13.106009 69.016563 138.94695
-12.050753 70.068214 139.4147
-10.991495 71.119743 139.88344
-9.9313412 72.171295 140.35263
-8.9771748 72.203011 140.83803
-7.9134655 73.254692 141.30905
-6.8488731 74.306396 141.78052
-5.7816086 75.3582 142.25334
-4.7134552 76.410027 142.72664
-3.6426315 77.461952 143.20131
-2.5709209 78.513893 143.67641
-1.4965382 79.565941 144.15289
-0.42038155 80.61805 144.63031
0.77375984 82.690659 145.09872
1.8548145 83.742676 145.57756
2.9371815 84.794991 146.05815
4.1402378 86.867912 146.53113
5.3472767 88.940704 147.0051
6.558321 91.013901 147.48218
7.7733631 93.086975 147.96025
8.991518 95.160416 148.44098
10.213675 97.233727 148.9227
11.564497 100.32793 149.40094
12.920641 103.4223 149.88187
14.282137 106.51686 150.36557
15.649851 109.61163 150.85245
17.151564 113.72748 151.33856
18.531721 116.82268 151.83185
-61.323326 102.69423 110.77438
-60.548313 98.655289 111.45144
-59.726891 95.63414 112.08168
-58.911251 92.612778 112.70898
-58.045193 90.609352 113.2915
-57.126335 89.624199 113.8316
-56.267128 87.620537 114.41062
-55.352798 86.634956 114.9473
-54.500526 84.631058 115.52275
-53.591091 83.645309 116.05692
-52.745575 81.641174 116.62891
-51.841034 80.655266 117.16057
-51.002541 78.650887 117.72895
-50.102882 77.66481 118.25809
-49.27124 75.660194 118.82297
-48.376472 74.67395 119.3496
-47.551689 72.669106 119.91096
-46.661446 71.682434 120.43419
-45.773708 70.695938 120.95721
-44.887917 69.709381 121.47924
-44.004181 68.722755 122.00023
-43.121857 67.735817 122.51939
-42.168411 67.767776 123.00552
-41.289562 66.780983 123.524
-40.336731 66.812653 124.00871
-39.38435 66.844582 124.49431
-38.431614 66.876251 124.97899
-37.479321 66.908173 125.46452
-36.526669 66.939835 125.94916
-35.65493 65.952797 126.46397
-34.703346 65.984428 126.94806
-33.752308 66.016312 127.43297
-32.800804 66.047935 127.91699
-31.849396 66.079559 128.401
-30.898077 66.111183 128.88495
-29.946766 66.142807 129.3689
-28.995893 66.174675 129.8537
-28.044756 66.206291 130.33755
-27.093615 66.237907 130.82141
-26.142654 66.269516 131.30519
-25.191608 66.301132 131.789
-24.241003 66.332726 132.27258
-23.289499 66.364349 132.75662
-22.338448 66.395699 133.23935
-21.387842 66.427299 133.72295
-20.437229 66.458893 134.20651
-19.389532 67.510017 134.66931
-18.43759 67.541397 135.1525
-17.486097 67.573029 135.63655
-16.534594 67.604652 136.12057
-15.482002 68.655685 136.58481
-14.529619 68.687347 137.06931
-13.474356 69.738464 137.53488
-12.521517 69.769867 138.01852
-11.463148 70.821365 138.4868
-10.403431 71.872635 138.95467
-9.3419476 72.923973 139.42346
-8.3860016 72.95575 139.90977
-7.4305038 72.987251 140.39479
-6.3645706 74.038742 140.86584
-5.2977428 75.090256 141.33737
-4.1169262 77.161888 141.79678
-3.0447712 78.213585 142.27104
-1.970829 79.26535 142.74622
-0.89511681 80.317169 143.22231
0.18283653 81.368805 143.69844
1.262104 82.420753 144.17636
2.4598103 84.492958 144.64444
3.5448704 85.544838 145.12422
4.7497005 87.617294 145.59595
5.9585209 89.689613 146.06863
7.1718044 91.762093 146.54364
8.3881779 93.834946 147.02129
9.6085758 95.907661 147.49991
10.957186 99.000977 147.97372
12.311129 102.09448 148.45029
13.670412 105.18817 148.92958
15.035913 108.28207 149.41205
16.407202 111.37591 149.89642
17.912485 115.4908 150.38004
19.296213 118.58507 150.87079
-61.607124 106.45566 109.14488
-60.931702 100.38249 109.91859
-60.107101 97.362511 110.55482
-59.233139 95.359886 111.14359
-58.418755 92.339287 111.77349
-57.554054 90.336609 112.3586
-56.692806 88.333549 112.94083
-55.777328 87.348541 113.48027
-54.863358 86.36322 114.01786
-54.011894 84.359825 114.59509
-53.164436 82.356285 115.17024
-52.258293 81.370697 115.70381
-51.418129 79.367172 116.27631
-50.516872 78.381416 116.80737
-49.683022 76.377411 117.37555
-48.786835 75.391479 117.90401
-47.892696 74.405472 118.43142
-47.068619 72.401138 118.99457
-46.248642 70.39666 119.55563
-45.291454 70.428482 120.0426
-44.406208 69.442169 120.56544
-43.450531 69.474205 121.05271
-42.568218 68.487793 121.57405
-41.687775 67.50132 122.09442
-40.733967 67.533028 122.57965
-39.856544 66.546448 123.09848
-38.904167 66.578377 123.58406
-37.951332 66.610046 124.06879
-36.99913 66.641968 124.55428
-36.046394 66.673637 125.03896
-35.094093 66.705559 125.52449
-34.223434 65.718483 126.03877
-33.271851 65.750114 126.52286
-32.320801 65.78199 127.00775
-31.369392 65.813614 127.49175
-30.417898 65.845245 127.9758
-29.466673 65.876862 128.4597
-28.5158 65.908737 128.9445
-27.564569 65.940353 129.42841
-26.613434 65.97197 129.91226
-25.662298 66.003586 130.39612
-24.711332 66.035194 130.8799
-23.760719 66.066788 131.36346
-22.809231 66.098419 131.84752
-21.858181 66.129768 132.33025
-20.907566 66.161362 132.81383
-19.860306 67.212212 133.27531
-18.908812 67.243835 133.75935
-17.858433 68.294525 134.22134
-16.90605 68.32618 134.70584
-15.95322 68.35759 135.18948
-15.00083 68.389244 135.67398
-13.946009 69.440086 136.13824
-12.992737 69.471779 136.6232
-11.935242 70.522705 137.08887
-10.981081 70.554428 137.57426
-9.9209194 71.605446 138.04126
-8.7516537 73.676147 138.49258
-7.7943745 73.70771 138.9785
-6.8370972 73.739265 139.46442
-5.7698231 74.790535 139.93509
-4.7016659 75.841835 140.4062
-3.5190563 77.912994 140.86435
-2.4455662 78.964478 141.33821
-1.3702869 80.016014 141.81299
-0.29322624 81.067619 142.28867
0.78604889 82.119034 142.7644
1.9837666 84.190712 143.23032
3.067049 85.242531 143.7092
4.271452 87.314163 144.17743
5.4802799 89.385956 144.64795
6.571558 90.438049 145.13095
7.7857456 92.510025 145.6042
9.0043621 94.582153 146.07974
10.350756 97.674599 146.54916
11.577379 99.747009 147.02882
12.933561 102.83979 147.50325
14.296412 105.93253 147.98003
15.791048 110.04601 148.45381
17.166346 113.13918 148.93698
18.675646 117.25288 149.41721
-62.099922 106.14485 107.6895
-61.317215 102.10857 108.38031
-60.488976 99.0895 109.02167
-59.666245 96.069984 109.65911
-58.849743 93.050522 110.29446
-57.926804 92.06604 110.83884
-57.062538 90.063614 111.42479
-56.202644 88.061302 112.0096
-55.346039 86.058617 112.59163
-54.433945 85.073761 113.13043
-53.52335 84.088585 113.66737
-52.676704 82.085556 114.24429
-51.771004 81.100212 114.77871
-50.931648 79.097198 115.35299
-50.030846 78.111687 115.8849
-49.197983 76.108185 116.45475
-48.302063 75.122505 116.98415
-47.408287 74.136757 117.51247
-46.585648 72.133163 118.07816
-45.766388 70.129189 118.64101
-44.80983 70.161263 119.12875
-43.924843 69.175209 119.65253
-43.041466 68.188835 120.17442
-42.086773 68.220833 120.66118
-41.206863 67.234612 121.18238
-40.25333 67.266571 121.66855
-39.299522 67.298279 122.15378
-38.423531 66.31192 122.67297
-37.471054 66.343849 123.15859
-36.518318 66.375519 123.64328
-35.566025 66.40744 124.12881
-34.613373 66.439102 124.61345
-33.743431 65.452538 125.12953
-32.791847 65.484169 125.61362
-31.840343 65.515793 126.09764
-30.804205 66.566261 126.55343
-29.851732 66.597923 127.03798
-28.89934 66.629578 127.52246
-28.035255 65.64254 128.03444
-27.083939 65.674164 128.5184
-26.133165 65.706032 129.00316
-25.182104 65.73764 129.48697
-24.230968 65.769257 129.97083
-23.186462 66.819481 130.42873
-22.234961 66.851105 130.91277
-21.282578 66.882767 131.39726
-20.331081 66.914391 131.8813
-19.379585 66.946022 132.36536
-18.329645 67.996429 132.82602
-17.376371 68.028114 133.31097
-16.323765 69.078613 133.77303
-15.370493 69.110306 134.25798
-14.417217 69.141991 134.74294
-13.463493 69.173431 135.22702
-12.406895 70.224335 135.69221
-11.452282 70.255798 136.17676
-10.392572 71.306541 136.64247
-9.3301792 72.357376 137.10953
-8.266901 73.408241 137.57706
-7.2014084 74.459442 138.04681
-6.2432404 74.491035 138.53319
-5.1755161 75.542053 139.00299
-4.1051273 76.593163 139.47418
-2.9202881 78.663597 139.93021
-1.8454494 79.714859 140.40366
-0.65484047 81.785759 140.86374
0.42578506 82.836952 141.33908
1.5068378 83.888428 141.81573
2.5896778 84.939964 142.2933
3.7931995 87.01104 142.75891
4.881815 88.062515 143.23834
6.0919971 90.134079 143.70848
7.306181 92.205528 144.17957
8.4019032 93.257248 144.66266
9.622324 95.328896 145.13695
10.97006 98.420593 145.60379
12.199808 100.49231 146.08179
13.683786 104.60434 146.54575
15.049768 107.6964 147.02086
16.421076 110.78864 147.4987
17.926844 114.90115 147.97278
19.440611 119.01396 148.45094
-61.704391 103.83324 106.83572
-60.925438 99.79789 107.52895
-60.100586 96.77951 108.17183
