ply
format ascii 1.0
comment PCL generated
element vertex 1544
property float x
property float y
property float z
element camera 0
property float view_px
property float view_py
property float view_pz
property float x_axisx
property float x_axisy
property float x_axisz
property float y_axisx
property float y_axisy
property float y_axisz
property float z_axisx
property float z_axisy
property float z_axisz
property float focal
property float scalex
property float scaley
property float centerx
property float centery
property int viewportx
property int viewporty
property float k1
property float k2
end_header
-10.004515 103.25175 80.860107
-9.9943066 105.04924 82.438492
-9.5516567 106.06027 83.550354
-9.5355587 107.85925 85.133118
-9.0885601 108.87139 86.248199
-8.6399822 109.88395 87.364441
-8.615469 111.68507 88.953445
-8.1624889 112.69875 90.072952
-8.1322155 114.50135 91.666183
-8.0987988 116.30477 93.261765
-8.0614223 118.10918 94.860275
-63.301247 78.368286 30.156891
-61.951843 77.81591 30.369827
-60.115303 76.49147 30.15564
-58.769726 75.938507 30.364685
-57.425961 75.385094 30.572403
-56.083931 74.831223 30.778824
-54.743629 74.276924 30.983963
-53.888855 74.495895 31.615326
-53.033985 74.714897 32.246735
-51.697227 74.159691 32.449265
-50.843651 74.377953 33.08078
-49.989738 74.59671 33.711517
-48.655941 74.041153 33.910767
-47.803391 74.259148 34.541534
-46.95042 74.477661 35.17157
-46.097359 74.696198 35.801651
-44.76807 74.139488 35.997604
-43.915962 74.357788 36.626968
-43.538601 75.351715 37.691589
-42.685703 75.570206 38.321548
-41.359795 75.012634 38.514999
-40.507847 75.230888 39.144272
-39.655891 75.449135 39.773529
-38.803947 75.667404 40.402786
-37.951996 75.885658 41.032059
-37.100124 76.103889 41.661255
-36.248253 76.322113 42.290482
-35.395966 76.540878 42.918915
-34.544167 76.759094 43.54808
-33.692383 76.977295 44.177231
-32.840164 77.196045 44.805618
-32.451523 78.193268 45.877518
-31.599012 78.411667 46.507187
-31.207777 79.409546 47.581024
-30.354498 79.628143 48.211273
-29.960386 80.627167 49.286163
-29.565046 81.626099 50.363037
-28.710028 81.845139 50.994583
-28.31217 82.844711 52.073318
-27.455938 83.064476 52.704666
-26.599867 83.284195 53.335922
-25.744146 83.50341 53.967972
-25.341688 84.50457 55.049057
-24.485167 84.724007 55.681686
-24.080275 85.725792 56.764572
-23.223051 85.945389 57.39772
-22.815573 86.94783 58.482529
-21.957121 87.168152 59.115524
-21.547613 88.170715 60.202866
-21.135954 89.174232 61.290741
-20.275877 89.394974 61.924988
-19.862196 90.39859 63.015427
-19.001387 90.619522 63.650162
-18.140608 90.840446 64.284927
-17.723112 91.845459 65.377121
-16.861609 92.066574 66.012375
-16.441671 93.072189 67.1064
-16.02017 94.078232 68.201553
-15.597349 95.084183 69.298752
-14.732985 95.306435 69.935089
-14.307219 96.31356 71.033371
-13.880232 97.320587 72.133682
-13.451254 98.328522 73.23436
-13.020536 99.336922 74.336349
-12.588156 100.34572 75.43956
-12.154051 101.35498 76.544052
-11.284887 101.57845 77.183945
-10.848349 102.58833 78.290237
-10.410215 103.59863 79.39769
-9.9702892 104.60937 80.506485
-9.5283642 105.62103 81.615692
-9.0852795 106.63258 82.726837
-8.6404705 107.64457 83.839249
-8.6208553 109.44527 85.422501
-8.1718578 110.45833 86.537979
-8.1463299 112.26054 88.12561
-8.1175747 114.06359 89.715622
-8.0856838 115.86743 91.307968
-7.6271424 116.88334 92.429459
-8.0112133 119.47826 94.499466
-66.038902 80.807068 29.336014
-64.194946 79.483292 29.130463
-62.35405 78.159149 28.921616
-60.516956 76.833626 28.711029
-59.171009 76.280357 28.921387
-57.826805 75.726646 29.130493
-56.48418 75.172516 29.338425
-55.143425 74.617912 29.544937
-53.80442 74.062866 29.750198
-52.95084 74.281128 30.381729
-52.096844 74.499908 31.012512
-50.761295 73.943977 31.215195
-49.908157 74.162537 31.845322
-49.055523 74.380562 32.476135
-48.20248 74.599091 33.106232
-46.870838 74.042572 33.304962
-46.019077 74.260368 33.93515
-45.166885 74.478683 34.56459
-43.838802 73.921257 34.760712
-42.987984 74.138817 35.390198
-42.136742 74.356888 36.018921
-41.758533 75.351852 37.082047
-40.433994 74.793518 37.275543
-39.582832 75.011574 37.904221
-38.731667 75.22963 38.532913
-37.880505 75.447678 39.161591
-37.029427 75.66571 39.790222
-36.646255 76.661942 40.85701
-35.794315 76.880196 41.486267
-34.47599 76.320267 41.67514
-33.624985 76.538284 42.303726
-32.773979 76.756302 42.932281
-32.386642 77.753593 44.002167
-31.53443 77.972313 44.630569
-31.144575 78.970261 45.702316
-30.291922 79.188705 46.332092
-29.899549 80.187286 47.405716
-29.045759 80.40641 48.035294
-28.650793 81.40567 49.110794
-27.796721 81.624466 49.741638
-27.399221 82.624359 50.819031
-26.543867 82.843887 51.449768
-26.143942 83.844406 52.528976
-25.287771 84.064156 53.160278
-24.431723 84.283867 53.79155
-24.028402 85.285248 54.873245
-23.171461 85.505188 55.505142
-22.765699 86.507195 56.588654
-21.908049 86.727318 57.221085
-21.499281 87.730499 58.305771
-20.640928 87.950798 58.938721
-20.230131 88.954102 60.025955
-19.370825 89.174652 60.659607
-18.957174 90.179077 61.74791
-18.542204 91.183441 62.838211
-17.681074 91.404861 63.472183
-17.263571 92.409874 64.564377
-16.402067 92.630997 65.199631
-15.981649 93.637146 66.292953
-15.119276 93.858475 66.928879
-14.696486 94.86525 68.023926
-14.272032 95.872437 69.120224
-13.845854 96.880081 70.217789
-13.417952 97.888161 71.316635
-12.988462 98.896645 72.416641
-12.557325 99.905556 73.517868
-12.124456 100.9149 74.620407
-11.690001 101.92465 75.724075
-10.820761 102.14815 76.364029
-10.383795 103.15854 77.469589
-9.9451809 104.16936 78.57634
-9.5048962 105.1806 79.684341
-9.0624828 106.19279 80.792877
-8.6188946 107.2049 81.903305
-8.6011181 109.00594 83.483078
-8.1532803 110.01911 84.596695
-8.1295071 111.8217 86.180862
-7.6767793 112.83653 87.297028
-7.6471772 114.64062 88.885574
-7.6144471 116.44549 90.476395
-7.5785584 118.25117 92.069595
-7.5382981 120.05838 93.664932
-7.9156098 122.65624 95.736771
-64.598129 79.82711 27.679443
-62.756683 78.501884 27.474182
-61.408112 77.948456 27.688614
-60.060791 77.395126 27.901077
-58.227997 76.067688 27.689392
-56.884998 75.513252 27.898666
-56.029179 75.732498 28.530762
-54.204185 74.403053 28.313324
-53.350605 74.621315 28.944839
-52.496525 74.840126 29.575684
-51.16053 74.283897 29.779739
-50.307404 74.502449 30.409897
-49.454281 74.721001 31.040024
-48.60157 74.939041 31.670914
-47.269905 74.381706 31.871796
-46.417713 74.600021 32.501221
-45.565441 74.818367 33.130707
-44.237259 74.260139 33.329025
-43.386021 74.47821 33.957779
-42.534775 74.696289 34.586502
-41.683525 74.91436 35.215225
-40.832291 75.132446 35.843979
-39.981041 75.350517 36.472717
-39.129883 75.568565 37.101395
-38.278713 75.786621 37.730087
-37.427559 76.004684 38.358765
-36.576473 76.22271 38.987381
-35.724972 76.441261 39.61525
-35.340446 77.438255 40.681992
-34.022884 76.877312 40.872452
-33.171875 77.095322 41.501022
-32.320457 77.31385 42.12883
-31.469519 77.531853 42.757339
-31.080832 78.529892 43.827179
-30.229116 78.748093 44.456268
-29.837484 79.747314 45.527206
-28.984892 79.965721 46.156937
-28.591238 80.96505 47.230438
-27.737455 81.184181 47.860016
-27.341276 82.184143 48.935379
-26.486784 82.403465 49.56546
-26.088011 83.404099 50.642776
-25.232649 83.623627 51.273499
-24.831434 84.624886 52.352585
-23.975271 84.844627 52.983902
-23.119619 85.063828 53.615921
-22.714674 86.066444 54.696701
-21.857817 86.286362 55.328537
-21.450781 87.289108 56.411957
-20.593138 87.509224 57.044373
-20.183073 88.513153 58.128952
-19.324713 88.733452 58.761902
-18.912558 89.737511 59.849106
-18.053411 89.958015 60.48262
-17.638472 90.963188 61.570816
-16.778547 91.183891 62.204926
-16.36109 92.189713 63.294968
-15.941961 93.195953 64.386276
-15.521536 94.202126 65.479599
-15.099112 95.209198 66.573318
-14.23554 95.431252 67.209061
-13.810591 96.43898 68.304672
-13.821753 98.233047 69.861954
-13.392637 99.241837 70.960648
-12.525679 99.464752 71.598907
-12.094114 100.47418 72.699417
-11.660826 101.48405 73.801163
-11.225965 102.49431 74.904129
-10.789366 103.50502 76.008331
-9.9192562 103.72874 76.648911
-9.4802151 104.74008 77.754944
-9.039526 105.75184 78.862167
-9.0258617 107.55266 80.436783
-8.5804272 108.56604 81.546494
-8.1339016 109.57928 82.658081
-8.1118069 111.38226 84.238937
-7.6606202 112.39711 85.352859
-7.6330247 114.20149 86.93782
-7.177588 115.21742 88.054901
-7.5662293 117.81363 90.115189
-7.5279222 119.62074 91.708054
-7.4860597 121.42919 93.302475
-7.4414353 123.23792 94.899994
-65.492836 80.943512 26.648071
-63.649632 79.617889 26.446228
-61.809948 78.291389 26.241745
-60.462524 77.737267 26.456406
-58.628826 76.409241 26.247482
-57.285389 75.854507 26.45813
-55.943676 75.299332 26.667496
-54.604111 74.743195 26.876328
-53.749958 74.962013 27.507233
-52.412567 74.405731 27.713394
-51.559776 74.623787 28.34433
-50.224991 74.066849 28.548553
-48.892014 73.509445 28.75145
-48.52047 74.503525 29.807556
-47.668621 74.721344 30.437805
-46.338173 74.163284 30.638824
-45.486843 74.381386 31.267624
-44.635437 74.599503 31.896469
-43.784122 74.817596 32.525269
-42.458069 74.258415 32.723038
-41.607624 74.476288 33.351196
-41.230236 75.471863 34.411606
-40.379002 75.689926 35.040359
-39.527771 75.907997 35.669083
-38.676517 76.126076 36.297836
-37.825348 76.344139 36.926498
-36.974186 76.562195 37.555191
-36.123024 76.780243 38.183868
-35.27195 76.998268 38.8125
-34.42086 77.216309 39.441116
-33.569355 77.43486 40.068985
-32.718361 77.65287 40.697556
-31.867346 77.870895 41.326126
-31.015921 78.089417 41.953934
-30.626799 79.08799 43.023026
-29.775091 79.30619 43.652115
-29.383451 80.305389 44.723068
-28.530455 80.52433 45.352066
-27.677961 80.742722 45.981735
-27.282927 81.742813 47.055176
-26.42922 81.961922 47.684708
-26.031752 82.962631 48.759933
-25.177191 83.181961 49.390091
-24.777128 84.183334 50.4673
-23.92185 84.402847 51.097961
-23.518927 85.405357 52.176208
-22.663275 85.624557 52.808212
-21.807203 85.844284 53.439468
-20.951132 86.063995 54.070724
-20.544531 87.067039 55.15274
-19.687666 87.286957 55.784576
-19.278135 88.291153 56.867722
-18.866873 89.295799 57.952148
-18.008436 89.516121 58.585129
-17.595144 90.520874 59.672119
-16.736006 90.741386 60.305634
-16.319777 91.747292 61.393738
-15.901892 92.753632 62.483063
-15.482367 93.760384 63.573593
-15.061171 94.767563 64.665359
-14.638166 95.775208 65.758453
-14.213583 96.783257 66.852737
-13.349638 97.004982 67.489807
-13.359465 98.800613 69.044937
-12.929853 99.809952 70.142914
-12.498587 100.81972 71.242142
-12.065664 101.8299 72.34259
-11.630674 102.84101 73.443497
-11.194441 103.85204 74.546402
-10.32482 104.07523 75.187668
-9.8855724 105.08743 76.291733
-9.0152569 105.3108 76.933548
-9.0032024 107.11202 78.504852
-8.5591412 108.12547 79.612473
-8.1137829 109.13882 80.722122
-7.666266 110.15314 81.832291
-7.643332 111.95716 83.411667
-7.6166902 113.76251 84.992722
-7.1630616 114.778 86.108475
-7.130568 116.58485 87.693863
-7.0945725 118.39221 89.282883
-7.0550218 120.20087 90.873505
-7.0127091 122.00983 92.467178
-66.388504 82.060455 25.613876
-64.052856 79.960876 24.997269
-62.212219 78.633797 24.795624
-60.864418 78.079361 25.011612
-59.517845 77.525024 25.225632
-57.685863 76.195732 25.017563
-56.34404 75.639771 25.229126
-55.003616 75.083855 25.438583
-53.664837 74.527527 25.646835
-52.811966 74.745605 26.277832
-51.475864 74.188591 26.484085
-50.62352 74.406937 27.113663
-49.771599 74.624779 27.743958
-48.438972 74.066872 27.947647
-47.58749 74.285011 28.576584
-46.736515 74.502602 29.206177
-45.885036 74.720741 29.835068
-44.556808 74.161713 30.035522
-43.706276 74.379601 30.663742
-42.85574 74.597496 31.291962
-41.530987 74.037582 31.489822
-40.681328 74.255249 32.117401
-40.304382 75.251114 33.176422
-39.45393 75.468987 33.804581
-38.60355 75.686844 34.432678
-37.753174 75.904694 35.060776
-36.902802 76.122551 35.688873
-36.052505 76.340378 36.316925
-35.202209 76.558212 36.944946
-34.818508 77.555809 38.008987
-33.967411 77.773842 38.637604
-33.116341 77.991867 39.26622
-31.800909 77.429977 39.456131
-30.950705 77.647781 40.084122
-30.562895 78.646439 41.151169
-29.711477 78.86496 41.778992
-29.321074 79.864265 42.847992
-28.469282 80.082489 43.477127
-28.076437 81.082413 44.547913
-27.223425 81.301361 45.176895
-26.370848 81.519768 45.806625
-25.974211 82.521088 46.879166
-25.120924 82.739677 47.509415
-24.721754 83.741638 48.583847
-23.867674 83.960449 49.214676
-23.465902 84.963074 50.291
-22.610624 85.182587 50.921692
-22.206915 86.185295 52.000519
-21.350767 86.405029 52.631836
-20.494696 86.624756 53.263092
-19.6387 86.844452 53.894272
-19.230818 87.848228 54.976212
-18.820784 88.852966 56.05864
-17.963217 89.073067 56.69101
-17.550741 90.078438 57.775253
-17.136457 91.084259 58.86087
-16.277311 91.304764 59.4944
-15.861082 92.310669 60.582504
-15.442709 93.317543 61.671112
-15.022749 94.324821 62.76091
-14.601057 95.332542 63.851974
-14.177717 96.340683 64.944275
-13.752218 97.349777 66.037109
-13.325567 98.358765 67.131851
-12.897192 99.368195 68.22789
-12.467154 100.37804 69.325134
-12.035543 101.38831 70.423553
-11.602049 102.39904 71.523361
-11.166624 103.41068 72.62352
-10.729979 104.42222 73.725662
-10.29167 105.4342 74.829025
-9.4207668 105.65811 75.4702
-8.9798717 106.67075 76.5755
-8.5369778 107.68429 77.681198
-8.5207653 109.4874 79.253464
-8.073698 110.50201 80.362274
-7.6253114 111.51656 81.473099
-7.1748567 112.53205 82.584396
-7.1477876 114.33792 84.164719
-7.1168275 116.14523 85.746841
-6.6597657 117.16239 86.863052
-6.6229234 118.97078 88.450577
-7.0039124 121.57181 90.509125
-66.792747 82.404816 24.159973
-64.946877 81.078262 23.964294
-63.10482 79.750313 23.766861
-61.265888 78.421982 23.566071
-59.919289 77.866829 23.782211
-58.086338 76.536964 23.576996
-56.744068 75.980698 23.789932
-55.403118 75.424522 24.000839
-54.064392 74.867355 24.211151
-52.726906 74.310272 24.419525
-51.391487 73.752258 24.627396
-50.539932 73.970421 25.256363
-50.170052 74.96489 26.309097
-48.837395 74.406181 26.514938
-47.98592 74.624313 27.143845
-46.655357 74.06546 27.347076
-46.283386 75.060059 28.402435
-45.431984 75.278175 29.031296
-44.104095 74.718643 29.232529
-43.253567 74.936539 29.860733
-41.92828 74.376343 30.060059
-41.078609 74.594025 30.687637
-40.22937 74.811172 31.315948
-39.379784 75.028824 31.943466
-38.530201 75.246468 32.570999
-38.151108 76.243294 33.630539
-37.300728 76.461151 34.258636
-36.450359 76.679008 34.886734
-35.59956 76.897369 35.514099
-34.749264 77.115204 36.142136
-33.898968 77.333038 36.770157
-33.513973 78.331375 37.834091
-32.662891 78.549408 38.462708
-31.348234 77.986496 38.654175
-30.034979 77.423645 38.843552
-29.647459 78.422623 39.909317
-29.258291 79.422012 40.976349
-28.406942 79.640533 41.604111
-28.015249 80.640579 42.672989
-27.163542 80.858765 43.302078
-26.768919 81.859978 44.37207
-25.916403 82.078377 45.00174
-25.51927 83.080231 46.073593
-24.665899 83.298843 46.703918
-23.812193 83.51796 47.33342
-22.958975 83.736542 47.963608
-22.557661 84.739456 49.038559
-22.154692 85.742805 50.114746
-21.299826 85.961807 50.74614
-20.894415 86.965767 51.824142
-20.038336 87.185486 52.455399
-19.182257 87.405212 53.086624
-18.773878 88.409523 54.167862
-18.363516 89.414749 55.249512
-17.505865 89.63488 55.881927
-17.09297 90.640755 56.965439
-16.234533 90.861069 57.59845
-15.819113 91.867615 58.683823
-15.401976 92.874565 59.770493
-14.983168 93.881958 60.858383
-14.562712 94.889778 61.947464
-14.140608 95.89801 63.037796
-13.716848 96.906662 64.129349
-13.291273 97.915787 65.222229
-12.864202 98.925293 66.316238
-12.43498 99.93576 67.410782
-12.00453 100.94612 68.507278
-11.572416 101.95691 69.605011
-11.138151 102.96867 70.703278
-11.135366 104.76917 72.263504
-10.265516 104.9924 72.904968
-9.826292 106.00543 74.006882
-9.3859234 107.01833 75.110733
-8.9433804 108.0322 76.215103
-8.4994717 109.04601 77.321579
-8.0536327 110.06073 78.428391
-7.606566 111.07533 79.537201
-7.1574159 112.0909 80.646469
-7.1313615 113.89775 82.222855
-6.6784806 114.91385 83.335953
-6.6464448 116.72225 84.916763
-6.6115098 118.53136 86.499741
-6.5726151 120.34151 88.085617
-6.5305848 122.15244 89.673843
-6.9055696 124.75623 91.733658
-68.181366 84.297653 23.534851
-65.841721 82.196251 22.928604
-63.997974 80.86792 22.734528
-62.157623 79.538712 22.537949
-60.32082 78.208611 22.33876
-58.97501 77.653259 22.554321
-57.144176 76.321617 22.350693
-55.8032 75.764618 22.563751
-54.463531 75.207687 22.774765
-53.125938 74.649826 22.985306
-52.27351 74.86821 23.614914
-50.938595 74.309662 23.823471
-49.604912 73.751205 24.03006
-48.754219 73.969139 24.658401
-48.384346 74.9636 25.711136
-47.053337 74.404465 25.915741
-46.202736 74.622368 26.544022
-45.352539 74.839767 27.17305
-44.501923 75.057686 27.8013
-43.651394 75.275581 28.42952
-42.325584 74.715111 28.630295
-41.476337 74.932266 29.258606
-40.153202 74.371109 29.457382
-39.304409 74.588562 30.084335
-38.455601 74.806015 30.711258
-37.606873 75.023445 31.33812
-36.758163 75.240868 31.964996
-36.378658 76.238205 33.023819
-35.529137 76.455849 33.65126
-34.67963 76.673477 34.278717
-33.830116 76.891106 34.906204
-33.445942 77.890053 35.967407
-32.595638 78.107895 36.595444
-31.745348 78.325714 37.22348
-30.895132 78.543526 37.851486
-29.582708 77.97963 38.042328
-29.194357 78.979652 39.106628
-28.344221 79.197433 39.734543
-27.494078 79.41523 40.362473
-27.102423 80.4161 41.429214
-26.251493 80.634087 42.057724
-25.857306 81.635597 43.126328
-25.461889 82.637009 44.196915
-24.608892 82.855934 44.825882
-24.210958 83.858002 45.898331
-23.357176 84.077126 46.527908
-22.503881 84.295723 47.158157
-22.102224 85.299141 48.232285
-21.247732 85.518456 48.862381
-20.843878 86.522026 49.939194
-19.988607 86.741539 50.56987
-19.13339 86.961037 51.20047
-18.725836 87.965965 52.279007
-17.869833 88.185669 52.910202
-17.460249 89.190689 53.991257
-17.048513 90.196686 55.072861
-16.635115 91.203094 56.155701
-15.776762 91.423409 56.78862
-15.360846 92.430466 57.873337
-14.94319 93.437973 58.95929
-14.523985 94.445869 60.046432
-14.10269 95.45472 61.134048
-13.680159 96.463478 62.223618
-13.25598 97.472641 63.314438
-12.830061 98.482269 64.406509
-12.838522 100.28111 65.955246
-12.408369 101.29181 67.050476
-11.976622 102.30293 68.146881
-11.543234 103.31445 69.244507
-11.107679 104.32695 70.342667
-10.670889 105.33935 71.44278
-10.23197 106.3527 72.543442
-9.3614101 106.57613 73.185425
-8.9201183 107.59009 74.287827
-8.4775829 108.60394 75.392227
-8.0328274 109.6188 76.497192
-8.0139904 111.42422 78.067184
-7.5652223 112.44009 79.175125
-7.1147828 113.45638 80.284317
-6.6625504 114.47314 81.394791
-6.6327729 116.28136 82.972885
-6.176825 117.29906 84.086136
-6.140265 119.10942 85.668198
-6.1013246 120.92039 87.252029
-6.0584474 122.73238 88.83873
-6.8499742 126.13118 91.365234
-66.737587 83.314796 21.89003
-64.892021 81.986107 21.699417
-63.049995 80.656517 21.506195
-61.211338 79.326065 21.310471
-59.376087 77.994743 21.112244
-58.032063 77.438118 21.328598
-56.689266 76.881577 21.542984
-55.348709 76.324059 21.756775
-53.5247 74.989861 21.550217
-52.188404 74.431259 21.760864
-50.853481 73.872704 21.969421
-50.003136 74.090141 22.598557
-48.670811 73.53093 22.805206
-47.821327 73.748138 23.433701
-46.971504 73.965851 24.061371
-46.121681 74.183571 24.689072
-45.272274 74.400764 25.317505
-44.422523 74.618454 25.945129
-43.572788 74.836151 26.572769
-42.723038 75.053833 27.200409
-41.873714 75.271011 27.828781
-40.550133 74.709557 28.028976
-39.22821 74.147697 28.22789
-38.380268 74.364922 28.854202
-37.532345 74.582146 29.480484
-36.684402 74.799385 30.106766
-35.836555 75.016586 30.733017
-35.457409 76.014244 31.790497
-34.608761 76.231651 32.417297
-33.760048 76.449081 33.044189
-32.911411 76.666489 33.671021
-32.528088 77.665222 34.731552
-31.678656 77.882835 35.358963
-30.828802 78.10096 35.985611
-29.979376 78.318573 36.613022
-29.130018 78.536156 37.240356
-28.741674 79.536171 38.304657
-27.891111 79.754478 38.931839
-27.040976 79.972275 39.559769
-26.19084 80.190063 40.187683
-25.797888 81.191658 41.254333
-24.946966 81.40966 41.882828
-24.551573 82.411873 42.951279
-24.154448 83.414543 44.021011
-23.30187 83.632957 44.650742
-22.90222 84.636276 45.722336
-22.048864 84.854881 46.352646
-21.646788 85.858826 47.426041
-20.792295 86.078133 48.056122
-20.387617 87.082733 49.131439
-19.532667 87.301758 49.762924
-18.677465 87.521255 50.393524
-17.822256 87.740753 51.024155
-17.413404 88.746414 52.10257
-17.002897 89.752502 53.182205
-16.590734 90.759018 54.263031
-16.176924 91.765945 55.345108
-15.318487 91.986267 55.978134
-14.902235 92.993828 57.062012
-14.484236 94.001831 58.147171
-14.064451 95.010292 59.233688
-13.643156 96.019135 60.321304
-13.219709 97.028938 61.409439
-13.232878 98.826988 62.953659
-12.805685 99.837349 64.045639
-12.376402 100.84865 65.138092
-11.945822 101.85986 66.23259
-11.513571 102.87152 67.328278
-11.07926 103.88411 68.424454
-10.643713 104.89659 69.522629
-10.206099 105.91002 70.621262
-9.7672405 106.92336 71.721878
-9.3261623 107.93767 72.823074
-8.8840008 108.95185 73.926132
-8.439764 109.96698 75.029648
-7.9937959 110.98254 76.13446
-7.5465989 111.99801 77.241241
-7.0973191 113.01442 78.348495
-7.0713181 114.82291 79.920624
-6.6178651 115.84038 81.03096
-6.1626954 116.8583 82.142609
-6.1285157 118.66888 83.720764
-6.0903153 120.48048 85.301926
-6.048964 122.29288 86.885406
-6.0044618 124.10609 88.471207
-6.7942948 127.50697 90.994736
-65.787056 83.104874 20.661469
-63.943176 81.774925 20.471725
-62.102772 80.444099 20.279419
-60.265839 79.112389 20.084549
-58.92041 78.555717 20.302979
-57.089451 77.222473 20.103683
-55.748363 76.664688 20.318909
-54.409012 76.106445 20.532867
-53.071396 75.547768 20.74556
-51.735085 74.989166 20.956192
-50.400925 74.429604 21.166306
-49.068501 73.869591 21.375137
-48.218678 74.087311 22.002823
-47.369198 74.304527 22.631317
-46.519371 74.522232 23.259018
-45.669468 74.73996 23.886765
-44.342319 74.178612 24.091675
-43.493359 74.396095 24.718735
-42.644405 74.613586 25.345795
-41.795948 74.830536 25.973526
-40.947063 75.048004 26.60051
-40.098183 75.265488 27.227509
-38.77676 74.703072 27.427139
-37.928738 74.920326 28.053482
-37.08123 75.137039 28.680527
-36.233292 75.354271 29.306808
-35.385357 75.571495 29.933121
-34.53751 75.788696 30.559357
-34.156666 76.787605 31.615982
-33.307941 77.005035 32.242844
-32.459297 77.222458 32.869659
-32.075569 78.221695 33.929489
-31.226046 78.439331 34.556946
-30.376623 78.656937 35.184357
-29.52677 78.875061 35.811005
-28.677336 79.092674 36.4384
-27.827986 79.31028 37.065735
-27.438002 80.311516 38.129135
-26.58779 80.529327 38.757111
-25.737654 80.747116 39.38504
-24.887167 80.965408 40.012146
-24.493361 81.967232 41.079437
-24.097479 82.969986 42.147186
-23.245756 83.188187 42.776276
-22.847342 84.191589 43.845901
-22.44721 85.195435 44.916794
-21.593512 85.414551 45.54631
-20.740217 85.633148 46.176575
-20.336767 86.63784 47.249924
-19.482275 86.857147 47.880005
-19.076307 87.862488 48.955215
-18.221449 88.081482 49.586655
-17.366232 88.300995 50.217255
-16.956968 89.307175 51.294907
-16.100981 89.526863 51.926117
-15.689184 90.533691 53.005646
-15.275824 91.540916 54.086334
-14.860716 92.548592 55.168304
-14.443968 93.556686 56.251511
-14.025129 94.565727 57.335175
-13.605078 95.574661 58.420822
-13.18321 96.584076 59.507797
-12.759756 97.59388 60.595963
-12.334242 98.604622 61.684555
-12.343969 100.40437 63.229218
-11.914198 101.41621 64.320984
-11.483259 102.42793 65.414658
-11.050032 103.44064 66.508987
-10.615721 104.45322 67.605179
-10.179335 105.46674 68.701859
-9.7417202 106.48017 69.800491
-9.3020153 107.49456 70.899612
-8.8609371 108.50887 72.000809
-8.4178524 109.52411 73.102417
-7.9731202 110.53977 74.205276
-7.5272279 111.55531 75.310013
-7.0791154 112.57183 76.415359
-7.0547166 114.38072 77.984192
-6.6025071 115.39829 79.09256
-6.5722871 117.20867 80.665695
-6.1158128 118.22733 81.777206
-6.0797791 120.03919 83.35466
-6.0395341 121.85254 84.934158
-5.9965501 123.66619 86.516708
-5.9504228 125.48064 88.101608
-64.837418 82.893883 19.434372
-62.504921 80.786957 18.832306
-61.156464 80.230637 19.054062
-59.809742 79.673882 19.274536
-57.977444 78.339752 19.079391
-56.635036 77.781891 19.296646
-54.808308 76.446747 19.096344
-53.954937 76.665359 19.726669
-52.617741 76.106178 19.940079
-51.282269 75.546539 20.152222
-49.948448 74.986473 20.363129
-48.616455 74.425941 20.572723
-47.766544 74.643684 21.200455
-46.437138 74.082497 21.408096
-45.5881 74.300011 22.035217
-44.739483 74.517006 22.663071
-43.413124 73.955444 22.867416
-42.565453 74.172195 23.494583
-41.717361 74.389465 24.120972
-40.869339 74.60672 24.747314
-40.021255 74.823982 25.373734
-39.173244 75.041229 26.000092
-38.325649 75.257965 26.627182
-37.477634 75.475212 27.25354
-36.6297 75.692444 27.879822
-35.781693 75.909683 28.50618
-34.933834 76.126892 29.132431
-34.085823 76.344147 29.758774
-33.237957 76.561356 30.384995
-32.856327 77.560471 31.442215
-32.007187 77.778412 32.068329
-31.623037 78.778175 33.127411
-30.773527 78.995804 33.754883
-29.924017 79.21344 34.382324
-29.074171 79.431564 35.008987
-28.224745 79.64917 35.636383
-27.375311 79.866791 36.263779
-26.525953 80.084381 36.891113
-25.676268 80.30246 37.51767
-25.284552 81.304153 38.582336
-24.433989 81.522469 39.209503
-23.583853 81.740257 39.837433
-23.64337 83.528099 41.343124
-22.791243 83.746803 41.971451
-22.392836 84.750214 43.041077
-21.539915 84.969131 43.669998
-21.138494 85.973709 44.740814
-20.2852 86.192307 45.371063
-19.431486 86.411423 46.000549
-18.577787 86.630539 46.630066
-18.172338 87.636154 47.703842
-17.318258 87.85495 48.334656
-16.910307 88.861206 49.410309
-16.500616 89.867905 50.487228
-16.088766 90.875565 51.564667
-15.232328 91.094971 52.197266
-14.818052 92.103241 53.276505
-14.402517 93.111443 54.357742
-13.98535 94.120056 55.440201
-13.566526 95.129082 56.52388
-13.145544 96.139076 57.608063
-12.723181 97.149017 58.694366
-12.736685 98.949028 60.233047
-12.310301 99.959999 61.322311
-11.882177 100.97142 62.412857
-11.45207 101.98373 63.50383
-11.020636 102.99599 64.596817
-10.587149 104.0092 65.690292
-10.151838 105.02285 66.78511
-9.7154446 106.03638 67.88176
-9.2769146 107.05086 68.978958
-8.8371334 108.06525 70.07814
-8.3953609 109.08057 71.177719
-8.3802166 110.88791 72.737595
-7.9341187 111.90433 73.840378
-7.4864488 112.92114 74.944351
-7.0370393 113.9384 76.049591
-7.0110154 115.74854 77.617508
-6.557364 116.76688 78.725906
-6.525435 118.57852 80.298172
-6.0677705 119.59789 81.409531
-6.0297761 121.41107 82.986313
-5.9878983 123.22566 84.564896
-5.9432893 125.04053 86.146545
-63.888565 82.6819 18.208786
-61.558594 80.572678 17.6091
-60.211338 80.015648 17.831024
-58.865902 79.458153 18.05159
-57.034885 78.123283 17.856567
-55.693687 77.564705 18.073975
-54.354225 77.005676 18.290131
-53.016582 76.446182 18.504929
-51.680588 75.886276 18.718521
-50.829376 76.103928 19.348297
-49.01387 74.765099 19.141785
-48.163975 74.982834 19.769547
-46.834049 74.421364 19.978622
-45.505924 73.859436 20.186386
-44.658176 74.07621 20.813599
-43.809925 74.293518 21.44014
-42.961754 74.510803 22.066589
-41.637962 73.947769 22.271149
-41.265987 74.944832 23.32016
-40.417896 75.162102 23.946579
-39.569805 75.379364 24.572983
-38.721714 75.596634 25.199387
-37.874119 75.813362 25.826492
-36.555187 75.249496 26.026382
-35.708038 75.466537 26.652084
-35.330162 76.465096 27.705475
-34.482151 76.682343 28.331818
-33.634212 76.899567 28.958115
-32.786354 77.116783 29.584335
-31.938505 77.333992 30.210587
-31.090647 77.551193 30.836823
-30.706442 78.551788 31.893814
-29.857798 78.769196 32.520645
-29.009161 78.986603 33.147461
-28.160513 79.20401 33.774277
-27.311949 79.421402 34.401016
-26.922705 80.423286 35.461777
-26.073355 80.640877 36.089096
-25.223577 80.858986 36.715683
-24.374228 81.076576 37.343033
-23.980803 82.079521 38.406845
-23.130743 82.297295 39.034714
-22.734732 83.300903 40.100479
-22.337133 84.304924 41.167358
-21.485418 84.523117 41.796463
-21.085318 85.527771 42.865234
-20.232397 85.746689 43.494156
-19.829763 86.751991 44.564789
-18.976469 86.970589 45.195038
-18.122755 87.189705 45.824539
-17.269552 87.408279 46.454758
-16.86241 88.415146 47.527664
-16.453871 89.421959 48.602676
-16.043753 90.429176 49.678833
-15.631994 91.436813 50.756241
-15.218496 92.444893 51.834915
-14.360777 92.665039 52.467392
-14.386045 94.46286 53.995255
-13.967573 95.472214 55.077591
-13.546965 96.482521 56.160461
-13.12512 97.492744 57.2453
-12.701551 98.503403 58.331467
-12.2759 99.514999 59.418045
-11.849012 100.5265 60.506638
-11.420134 101.53893 61.595657
-10.989943 102.55128 62.686661
-10.5576 103.56458 63.778214
-10.12409 104.5778 64.871689
-10.120199 106.38348 66.420059
-9.6824627 107.39776 67.516678
-9.2426205 108.41298 68.613785
-8.8012295 109.42861 69.712021
-8.3584423 110.44417 70.812393
-7.9136567 111.46068 71.913162
-7.4671311 112.47761 73.015213
-7.4452348 114.28749 74.577957
-6.9945436 115.3055 75.68309
-6.9664063 117.11739 77.249405
-6.5114579 118.13649 78.357681
-6.4777436 119.94939 79.929184
-6.0187974 120.9695 81.040421
-5.9785218 122.7845 82.615723
-5.9362245 124.59961 84.193527
-64.29126 83.025841 16.758118
-62.450249 81.692299 16.573639
-60.612682 80.35788 16.386642
-59.266712 79.800117 16.608658
-57.922474 79.241898 16.829391
-56.093586 77.905258 16.635941
-54.753685 77.345932 16.853485
-53.415512 76.786163 17.069748
-52.079071 76.225967 17.284714
-51.227776 76.443642 17.914551
-49.893932 75.882774 18.127579
-48.561821 75.321449 18.339371
-47.231449 74.759689 18.54985
-45.902798 74.197495 18.759048
-45.054638 74.414772 19.385513
-44.206383 74.632095 20.012039
-43.358555 74.848885 20.639313
-42.034321 74.285545 20.845261
-41.187016 74.502625 21.471085
-40.339783 74.719673 22.096848
-39.96645 75.717484 23.145798
-39.118355 75.934746 23.772232
-38.270267 76.152023 24.398605
-37.422672 76.368752 25.025711
-36.104076 75.80439 25.226425
-35.256931 76.021416 25.852127
-34.409786 76.238441 26.477844
-34.030621 77.237747 27.531128
-33.182686 77.454979 28.15741
-32.334747 77.672203 28.783707
-31.486818 77.889427 29.410004
-30.63896 78.106636 30.036224
-29.791105 78.323853 30.66246
-29.405619 79.325172 31.71936
-28.556967 79.542587 32.346176
-27.708319 79.760002 32.972992
-26.859686 79.977402 33.599808
-26.010702 80.195312 34.22583
-25.620665 81.197395 35.28714
-24.770887 81.415504 35.913742
-23.921545 81.633095 36.541077
-23.072187 81.850685 37.168427
-22.677565 82.854347 38.232071
-22.281134 83.858475 39.297073
-21.883108 84.863007 40.36322
-21.031324 85.081223 40.992371
-20.179266 85.299919 41.620651
-19.327551 85.518112 42.249741
-18.925367 86.523712 43.318985
-18.521025 87.530273 44.388779
-17.667738 87.748871 45.019028
-16.814039 87.967979 45.648544
-16.406889 88.974846 46.721451
-15.998007 89.982162 47.79567
-15.5874 90.989914 48.87114
-15.174726 91.998604 49.947098
-14.760809 93.007202 51.02504
-14.345137 94.016243 52.104233
-13.927496 95.026215 53.183868
-13.508543 96.036095 54.265533
-13.087934 97.046394 55.348434
-12.665174 98.057671 56.431839
-12.241255 99.068832 57.517151
-11.815176 100.08095 58.603012
-11.3878 101.09298 59.690903
-10.958426 102.10595 60.779221
-10.527395 103.11933 61.868759
-10.095037 104.13264 62.960312
-9.6606274 105.1469 64.052353
-9.6564007 106.95308 65.59993
-9.2177258 107.96841 66.695114
-8.7774868 108.98416 67.791458
-8.3355846 110.00032 68.889023
-7.8923783 111.01641 69.988617
-7.4471726 112.03342 71.088638
-7.0001512 113.0509 72.190002
-6.9770036 114.86233 73.750504
-6.9507966 116.67413 75.314346
-6.4972444 117.69328 76.420547
-6.4647737 119.5071 77.98793
-6.4292893 121.32128 79.558609
-5.9685578 122.34267 80.669083
-5.9276185 124.15824 82.24382
-5.8824983 125.9753 83.820557
-62.852509 82.035118 15.12648
-61.014042 80.700119 14.94223
-59.66761 80.142059 15.165665
-58.323261 79.583054 15.38858
-56.980324 79.024094 15.609436
-55.639095 78.464699 15.828995
-53.814434 77.126152 15.634537
-52.477547 76.565659 15.850906
-51.626175 76.783356 16.480789
-50.291885 76.222191 16.695221
-48.959332 75.660576 16.908371
-48.109352 75.878326 17.536194
-46.779388 75.316055 17.747406
-45.451508 74.752838 17.95816
-44.125015 74.189674 18.166824
-43.277706 74.406746 18.792664
-42.430328 74.623833 19.418549
-41.583443 74.840385 20.04512
-40.736061 75.057465 20.671005
-39.888756 75.274536 21.296829
-39.041958 75.491066 21.92334
-38.666908 76.490135 22.971451
-37.34742 75.925186 23.174942
-36.500198 76.142227 23.800705
-35.653049 76.359253 24.426407
-34.805824 76.576302 25.05217
-33.958683 76.79332 25.677902
-33.111954 77.009834 26.304352
-32.264805 77.226868 26.930069
-31.417738 77.443871 27.55571
-31.035204 78.444855 28.60936
-30.187265 78.662086 29.235641
-29.339418 78.879295 29.861877
-28.953505 79.881142 30.91803
-28.104792 80.098564 31.544907
-27.25614 80.315971 32.171738
-26.407583 80.533371 32.798477
-25.558516 80.751289 33.424561
-24.709959 80.968674 34.051315
-23.861395 81.186073 34.67807
-23.468863 82.189606 35.73912
-22.619505 82.407211 36.366455
-22.224379 83.4114 37.429428
-21.373823 83.629715 38.056595
-20.976187 84.634567 39.121429
-20.576872 85.639839 40.187485
-19.725088 85.858047 40.816635
-18.87303 86.076736 41.444916
-18.021315 86.294937 42.074005
-17.617849 87.30127 43.143143
-16.765005 87.520164 43.772018
-16.359022 88.527138 44.843033
-15.951368 89.534546 45.915253
-15.541662 90.542885 46.987961
-15.130636 91.551163 48.062714
-14.717871 92.559868 49.138718
-14.303114 93.569504 50.215164
-13.887045 94.579056 51.293625
-13.468885 95.589569 52.372574
-13.049513 96.599968 53.453476
-12.628057 97.611313 54.534866
-12.205297 98.622589 55.618271
-11.780539 99.634781 56.702118
-11.354383 100.6469 57.788025
-10.926252 101.65996 58.874374
-10.496298 102.67348 59.962051
-10.065268 103.68686 61.05159
-9.6320782 104.70121 62.141663
-9.1972561 105.71597 63.232956
-8.7611828 106.73064 64.326218
-8.3230267 107.74626 65.419968
-8.3124218 109.55531 66.96907
-7.8699479 110.57204 68.066025
-7.4263902 111.58862 69.16481
-7.4073472 113.39982 70.720169
-6.9591279 114.41801 71.82135
-6.5092454 115.43662 72.923782
-6.4817872 117.24998 74.485367
-6.4513688 119.06369 76.050186
-6.417212 120.87876 77.616714
-6.3796678 122.6947 79.185776
-5.9179826 123.71633 80.296936
-61.905342 81.820244 13.905991
-60.068562 80.483994 13.72261
-58.235157 79.146858 13.536758
-57.380322 79.36544 14.169205
-56.038651 78.805763 14.390152
-54.699062 78.245125 14.610626
-53.360859 77.68454 14.82901
-52.024326 77.123543 15.046173
-50.689926 76.561584 15.262802
-49.356918 75.99968 15.477341
-48.506859 76.217453 16.105209
-47.176876 75.654366 16.318558
-45.848122 75.091362 16.529968
-44.521179 74.527916 16.740021
-43.673798 74.745003 17.365891
-42.34938 74.180901 17.574081
-41.503281 74.397247 18.200073
-40.656853 74.61409 18.825272
-39.810757 74.830437 19.451263
-38.96423 75.04731 20.076492
-38.11779 75.26416 20.701691
-37.74361 76.263008 21.749146
-36.896385 76.480049 22.374924
-36.049168 76.69709 23.000687
-34.732693 76.130966 23.202988
-33.886337 76.347794 23.82811
-33.040054 76.56459 24.453201
-32.193783 76.781395 25.078262
-31.347498 76.998199 25.703323
-30.501215 77.215012 26.3284
-30.119478 78.215782 27.381454
-29.27199 78.433311 28.006363
-28.887732 79.434738 29.061295
-28.039881 79.651939 29.687546
-27.192019 79.869156 30.313766
-26.343824 80.086861 30.939194
-25.496061 80.304047 31.565369
-24.648275 80.521233 32.191544
-23.800566 80.738403 32.817657
-23.409201 81.742058 33.876785
-22.560637 81.95945 34.503555
-22.166754 82.963737 35.56456
-21.7712 83.96846 36.626785
-20.920637 84.186775 37.253937
-20.522581 85.192131 38.318039
-19.671659 85.410126 38.946548
-19.270643 86.416656 40.011734
-18.418928 86.634857 40.640823
-17.566801 86.853554 41.26918
-17.162909 87.860413 42.33757
-16.310408 88.078819 42.967239
-15.903578 89.086823 44.036758
-15.495436 90.094765 45.108322
-15.085722 91.103111 46.181015
-14.673849 92.112411 47.254257
-14.260664 93.121643 48.329529
-13.845411 94.131805 49.405273
-13.428991 95.141861 50.482925
-13.010351 96.152908 51.561188
-12.590483 97.163841 52.641418
-12.168608 98.175705 53.722061
-11.74542 99.1875 54.804718
-11.320173 100.20022 55.887878
-10.893263 101.21338 56.972244
-10.465033 102.22646 58.05864
-10.03475 103.24046 59.145523
-9.6027126 104.25492 60.233688
-9.1691113 105.26978 61.322998
-8.7342739 106.28455 62.414291
-8.2972851 107.30028 63.506134
-7.8587174 108.31641 64.599106
-7.4183488 109.33299 65.693466
-7.4043717 111.14373 67.242935
-6.9599061 112.16136 68.340317
-6.9404511 113.97308 69.894913
-6.4918046 114.9918 70.995361
-6.4660172 116.80555 72.553574
-6.0131288 117.82533 73.657181
-6.4042268 120.43566 75.677612
-6.3683686 122.25198 77.243317
-60.959019 81.604324 12.686996
-59.124329 80.266304 12.505249
-57.780396 79.706779 12.728928
-56.438629 79.146294 12.952072
-55.098167 78.585884 13.173172
-53.759872 78.024513 13.393753
-52.422882 77.463219 13.612305
-51.08762 76.901474 13.829559
-49.754513 76.338776 14.04631
-48.904446 76.556557 14.674164
-47.092644 75.213089 14.474426
-46.244816 75.429886 15.1017
-44.917355 74.86615 15.313187
-44.070312 75.082741 15.93988
-42.745441 74.518341 16.14946
-41.898926 74.735214 16.774704
-41.05283 74.951561 17.400696
-40.20631 75.168419 18.025925
-39.359802 75.385284 18.651199
-38.513702 75.601639 19.277176
-37.667255 75.818489 19.902359
-36.820824 76.035332 20.527527
-36.445362 77.034912 21.574905
-35.128448 76.468483 21.77861
-34.282009 76.685333 22.403793
-33.435654 76.902161 23.028915
-32.589363 77.118965 23.653976
-31.743006 77.335793 24.279099
-30.896723 77.552597 24.904175
-30.050447 77.769402 25.529251
-29.204241 77.986191 26.154251
-28.820715 78.988235 27.206528
-27.973738 79.205215 27.832123
-27.126661 79.422234 28.457779
-26.279673 79.639221 29.083359
-25.43276 79.856186 29.708908
-25.044279 80.859505 30.764847
-24.196508 81.076706 31.391006
-23.348722 81.293892 32.017181
-22.500624 81.511566 32.642563
-22.107954 82.515968 33.701584
-21.259466 82.733337 34.328278
-20.864294 83.738365 35.389191
-20.467459 84.743828 36.451294
-20.068983 85.74971 37.514648
-19.217642 85.968216 38.142395
-18.366697 86.186218 38.770905
-17.515364 86.404724 39.398666
-17.1127 87.411667 40.465088
-16.708311 88.41906 41.532806
-15.855391 88.637978 42.161728
-15.448568 89.645988 43.231247
-15.039572 90.654961 44.301285
-14.62937 91.663849 45.373322
-13.774008 91.883385 46.004044
-13.361341 92.892899 47.077866
-12.946539 93.903351 48.152237
-12.530493 94.913719 49.228561
-12.112288 95.925056 50.305435
-11.692785 96.936317 51.384323
-11.27136 97.948471 52.463577
-11.285139 99.75293 53.990433
-10.859877 100.76566 55.073578
-10.432478 101.77934 56.157257
-10.003401 102.79344 57.242172
-9.572691 103.80798 58.328293
-9.1406689 104.82243 59.416489
-8.7065563 105.83783 60.505081
-8.2708874 106.85364 61.594894
-7.8334718 107.86988 62.685974
-7.3944154 108.88655 63.778275
-6.9537034 109.90363 64.871811
-6.9388108 111.71542 66.419876
-6.4938416 112.7336 67.516525
-6.4731278 114.54688 69.068924
-6.4490342 116.361 70.623779
-5.9974504 117.38087 71.725342
-5.9674363 119.19652 73.284592
-5.9338899 121.01308 74.846451
-6.3186784 123.62624 76.868362
-60.013958 81.386856 11.470245
-58.66872 80.827255 11.695938
-56.838264 79.487328 11.513168
-55.984215 79.705711 12.14505
-54.64418 79.144783 12.366913
-53.306297 78.582901 12.588226
-51.485809 77.240829 12.397034
-50.152256 76.677841 12.615158
-49.302116 76.89563 13.243088
-47.971157 76.331978 13.459259
-46.64151 75.768394 13.673431
-45.313602 75.204361 13.886322
-43.987766 74.639397 14.098709
-43.141171 74.856277 14.72403
-42.295074 75.072632 15.350021
-41.448479 75.289513 15.975327
-40.126625 74.723938 16.183731
-39.281395 74.940063 16.809067
-38.435745 75.156715 17.43367
-38.063168 76.155968 18.477844
-37.216736 76.37281 19.103043
-36.370216 76.589676 19.728271
-35.523769 76.806526 20.353455
-34.67733 77.023384 20.978638
-33.831394 77.239693 21.604507
-32.985035 77.456512 22.22963
-32.13868 77.673332 22.854782
-31.292315 77.89016 23.479904
-30.445955 78.106995 24.105011
-29.599676 78.323792 24.730087
-28.753481 78.540573 25.355103
-27.907194 78.757378 25.980164
-27.060987 78.974167 26.605179
-26.675478 79.977142 27.657883
-25.828402 80.194153 28.283524
-24.981413 80.411133 28.909103
-24.13442 80.628128 29.534714
-23.744734 81.632172 30.590485
-22.896544 81.849869 31.215927
-22.048841 82.067039 31.842041
-21.201139 82.28421 32.46814
-20.807211 83.289322 33.527084
-20.411612 84.294884 34.587219
-19.561842 84.512993 35.213821
-19.163801 85.519173 36.275772
-18.76396 86.52581 37.339066
-17.912611 86.744324 37.966827
-17.061682 86.962311 38.595337
-16.658606 87.96978 39.661011
-15.806471 88.188492 40.289352
-14.954412 88.407181 40.917648
-14.547949 89.415512 41.985825
-14.139837 90.424263 43.055237
-13.729559 91.433983 44.125183
-13.318144 92.443588 45.197037
-12.904562 93.45414 46.269424
-12.48934 94.465118 47.343033
-12.07279 95.476036 48.418686
-11.654173 96.487869 49.494812
-11.233824 97.500175 50.572205
-10.81233 98.512344 51.651535
-10.388678 99.525475 52.731384
-10.399168 101.3316 54.25856
-9.9713421 102.34579 55.341476
-9.5422802 103.35989 56.426407
-9.1110668 104.37498 57.511826
-8.6782742 105.39045 58.59845
-8.2436733 106.40638 59.686386
-7.8074937 107.42273 60.775497
-7.3696733 108.43948 61.865829
-6.9301972 109.45667 62.957382
-6.9169831 111.26884 64.50209
-6.4733262 112.28709 65.596741
-6.4541306 114.1008 67.145859
-6.4317155 115.91531 68.697372
-6.405829 117.73073 70.25145
-5.9525361 118.75185 71.352188
-5.9208207 120.56876 72.910553
-5.8855729 122.38657 74.471573
-5.8470902 124.2052 76.034973
-59.069313 81.168869 10.254227
-57.725761 80.608017 10.480804
-55.897049 79.26683 10.298859
-55.043457 79.485497 10.929337
-53.704952 78.923363 11.152161
-52.368359 78.360741 11.373581
-51.032993 77.798203 11.593048
-49.217236 76.453705 11.401535
-48.368385 76.670753 12.029556
-47.038284 76.106888 12.245102
-46.190296 76.323723 12.872482
-44.862804 75.759163 13.086136
-43.536968 75.194199 13.298538
-42.690796 75.410568 13.924576
-41.36763 74.844917 14.13501
-40.52232 75.061066 14.760422
-39.67659 75.277733 15.385071
-38.831284 75.493881 16.010483
-37.98563 75.710526 16.635086
-37.612297 76.710793 17.677719
-36.766201 76.927139 18.303711
-35.919682 77.144012 18.928955
-35.073174 77.36087 19.554184
-34.22673 77.577728 20.179367
-33.380283 77.794571 20.80455
-32.067242 77.225914 21.008575
-31.221743 77.442528 21.633057
-30.376165 77.659149 22.257599
-29.530748 77.87574 22.882019
-28.685259 78.092339 23.506516
-28.30271 79.094963 24.555954
-27.456427 79.311768 25.18103
-26.610151 79.52858 25.806091
-25.763937 79.745369 26.431107
-25.377142 80.749069 27.483688
-24.530149 80.966064 28.109268
-23.683165 81.183052 28.734863
-23.292555 82.188148 29.789215
-22.444777 82.405334 30.41539
-21.596998 82.62252 31.04155
-20.74922 82.839722 31.66774
-20.354933 83.845337 32.725861
-19.505964 84.06324 33.351883
-19.109152 85.069511 34.411865
-18.710615 86.076225 35.473129
-17.860052 86.29454 36.100296
-17.459005 87.301888 37.163437
-16.60758 87.520432 37.791245
-16.204084 88.528404 38.856186
-15.35195 88.747116 39.484528
-14.500235 88.965309 40.113617
-14.093016 89.974655 41.180252
-13.684401 90.983948 42.248978
-13.27371 91.994179 43.318176
-12.861784 93.004311 44.389359
-12.44779 94.015388 45.460983
-12.032141 95.026886 46.533859
-11.615187 96.038315 47.608765
-11.196135 97.050674 48.684143
-10.775373 98.063492 49.760788
-10.352957 99.076721 50.838654
-9.9293041 100.08985 51.918518
-9.5035763 101.10394 52.99884
-9.0761929 102.11843 54.080399
-9.0806484 103.9269 55.609909
-8.6490917 104.94247 56.694565
-8.2158108 105.95849 57.780472
-7.7807755 106.97494 58.867661
-7.3441911 107.99179 59.956024
-6.9058671 109.00908 61.045685
-6.4659638 110.02679 62.136505
-6.4519105 111.84 63.679703
-6.0077577 112.85878 64.773666
-5.9874558 114.674 66.320419
-5.9639726 116.48962 67.870621
-5.9373155 118.30605 69.423172
-5.9071946 120.12336 70.978256
-5.8733659 121.94203 72.535049
-5.8364015 123.7611 74.0952
-58.125931 80.949326 9.040451
-56.783638 80.387749 9.2671356
-55.44305 79.825729 9.492569
-54.103775 79.263794 9.7159882
-52.766663 78.700882 9.9388733
-51.431267 78.137543 10.160446
-50.097599 77.573753 10.380753
-48.765247 77.010048 10.59903
-47.435055 76.445374 10.816788
-46.586655 76.66272 11.443436
-45.25914 76.097366 11.659195
-43.93327 75.531586 11.873734
-43.086597 75.748489 12.4991
-41.763325 75.182053 12.711716
-40.917595 75.398712 13.33638
-40.071877 75.615372 13.961044
-39.226566 75.83152 14.586441
-38.380825 76.048187 15.211105
-37.535595 76.264313 15.836441
-37.161766 77.265129 16.878387
-36.315239 77.481995 17.503616
-35.468651 77.698883 18.128922
-34.622639 77.915207 18.754852
-33.776115 78.132072 19.380112
-32.92968 78.348923 20.005295
-31.616541 77.780304 20.209351
-30.771051 77.996902 20.833847
-29.925894 78.213005 21.459137
-29.080408 78.429604 22.083633
-28.234987 78.646194 22.708054
-27.389498 78.862793 23.332535
-27.005663 79.866158 24.381851
-26.15938 80.082962 25.006943
-25.313181 80.299751 25.631943
-24.46689 80.516563 26.257004
-24.078382 81.521523 27.308762
-23.231398 81.738503 27.934341
-22.840796 82.743607 28.988693
-21.99301 82.9608 29.614853
-21.145224 83.177994 30.241043
-20.297049 83.395691 30.86647
-19.902258 84.401848 31.923904
-19.053694 84.61924 32.550659
-18.655966 85.626579 33.609207
-17.806692 85.844147 34.236496
-17.406874 86.851585 35.297653
-17.00498 87.859985 36.359283
-16.154051 88.07798 36.987793
-15.749563 89.087029 38.051346
-14.897848 89.305222 38.680435
-14.490904 90.314911 39.745804
-13.638411 90.533302 40.375473
-13.228956 91.543625 41.442703
-12.817923 92.554359 42.511108
-12.405508 93.565033 43.581589
-11.991011 94.576645 44.652542
-11.574949 95.588654 45.724686
-11.15756 96.600601 46.798813
-10.738028 97.61351 47.873489
-10.316923 98.626808 48.949371
-9.8940029 99.640579 50.02655
-9.4695797 100.65473 51.104843
-9.0432796 101.66936 52.184555
-8.6154842 102.68437 53.26535
-8.1859417 103.69984 54.347443
-8.1870327 105.50999 55.877335
-7.7533402 106.5265 56.962509
-7.3179688 107.54346 58.048904
-6.8808808 108.56086 59.136581
-6.870955 110.37383 60.674637
-6.42977 111.39227 61.76532
-5.9864259 112.41166 62.856583
-5.5418534 113.43097 63.949783
-5.5210633 115.24672 65.495865
-5.4963136 117.06388 67.043839
-5.4687409 118.88137 68.594925
-5.4377885 120.69972 70.148529
-5.4031053 122.51943 71.703827
-5.3653932 124.3395 73.262451
-5.323935 126.16095 74.822739
-5.2789369 127.98331 76.385696
-56.695591 79.948265 7.4237213
-55.842358 80.166443 8.0549927
-54.502594 79.60421 8.2798004
-53.165028 79.041016 8.5040741
-51.829193 78.477379 8.7270355
-50.49501 77.913315 8.9488068
-49.162632 77.348785 9.16922
-47.831985 76.783829 9.3883362
-46.983505 77.00119 10.01506
-45.65546 76.435555 10.232254
-44.329159 75.869484 10.448196
-43.482475 76.086388 11.073547
-41.681309 74.736511 10.875458
-40.836357 74.952988 11.499542
-39.991837 75.16893 12.124359
-39.146976 75.385376 12.748367
-38.302452 75.601326 13.373184
-37.930801 76.601982 14.41246
-37.085072 76.818642 15.037125
-36.239761 77.03479 15.662537
-35.864635 78.036339 16.704361
-35.018124 78.253212 17.329605
-34.1716 78.470078 17.954849
-33.325508 78.686424 18.580826
-32.011917 78.1175 18.786285
-31.166357 78.334122 19.410843
-30.32078 78.550751 20.035385
-29.475206 78.76738 20.659912
-28.166452 78.196808 20.862854
-27.321829 78.413185 21.48671
-26.938723 79.417183 22.533386
-26.093729 79.633247 23.158554
-25.708193 80.637878 24.207031
-24.861917 80.854675 24.832108
-24.015711 81.071465 25.457108
-23.169424 81.288277 26.082169
-22.780119 82.293442 27.134506
-21.933142 82.510422 27.760101
-21.540838 83.516777 28.813583
-20.693052 83.733963 29.439774
-19.845274 83.951157 30.065933
-19.450071 84.95784 31.12262
-18.601011 85.175751 31.748703
-18.203283 86.18309 32.807251
-17.353933 86.400681 33.434586
-16.953276 87.409157 34.494247
